ply
format ascii 1.0
comment VCGLIB generated
element vertex 1646
property float x
property float y
property float z
element face 0
property list uchar int vertex_indices
end_header
-0.017776 -0.21479 -1.25213 
-0.051601 -0.212651 -1.25765 
-0.013467 -0.214578 -1.25309 
0.000155 -0.21497 -1.25291 
-0.004267 -0.21502 -1.25268 
0.030855 -0.21614 -1.25059 
0.02421 -0.21591 -1.25122 
-0.07728 -0.210686 -1.26298 
-0.003402 -0.214168 -1.25549 
0.005879 -0.21444 -1.25506 
0.031378 -0.215205 -1.25374 
-0.08698 -0.209338 -1.26745 
-0.070985 -0.210138 -1.2655 
0.011466 -0.213964 -1.25742 
-0.090474 -0.208744 -1.26977 
0.010572 -0.213172 -1.26 
0.023028 -0.213682 -1.25886 
-0.072475 -0.208875 -1.26985 
0.024034 -0.213459 -1.25999 
-0.061885 -0.209575 -1.26794 
0.000318 -0.21202 -1.26326 
-0.034987 -0.210073 -1.26833 
-0.037745 -0.209665 -1.26943 
-0.0565 -0.208333 -1.27271 
-0.00398 -0.210792 -1.26745 
-0.005685 -0.210224 -1.26998 
0.007337 -0.210689 -1.26842 
-0.020367 -0.208823 -1.27294 
-0.073157 -0.209337 -1.2684 
-0.111489 -0.212179 -1.25637 
-0.111758 -0.212569 -1.25463 
-0.081253 -0.212031 -1.25796 
-0.111893 -0.2138 -1.25049 
-0.125867 -0.214753 -1.24571 
-0.077865 -0.213205 -1.25391 
-0.096894 -0.214093 -1.24962 
-0.111391 -0.215294 -1.24491 
-0.042491 -0.212884 -1.25748 
-0.07129 -0.21429 -1.25023 
-0.099656 -0.215825 -1.24356 
-0.024459 -0.212849 -1.25875 
-0.08057 -0.215161 -1.24696 
-0.15638 -0.218148 -1.23136 
-0.014756 -0.212987 -1.25844 
-0.097834 -0.216517 -1.24105 
-0.147236 -0.218674 -1.23026 
-0.124365 -0.218195 -1.23397 
-0.075115 -0.216407 -1.24278 
-0.119648 -0.218496 -1.23276 
-0.144249 -0.219236 -1.22825 
0.018343 -0.213589 -1.25891 
-0.0657 -0.216678 -1.24254 
-0.043744 -0.215915 -1.24645 
-0.110925 -0.218973 -1.23151 
-0.12687 -0.219684 -1.22835 
-0.120178 -0.219378 -1.22952 
-0.089027 -0.218324 -1.23524 
-0.074395 -0.217928 -1.23737 
-0.052886 -0.216904 -1.24217 
-0.02935 -0.216741 -1.24448 
-0.129266 -0.220515 -1.22535 
-0.124385 -0.2202 -1.22644 
-0.073615 -0.21864 -1.23489 
-0.050243 -0.217715 -1.23942 
-0.158012 -0.221575 -1.21868 
-0.142125 -0.221462 -1.22063 
-0.15919 -0.22204 -1.217 
-0.076443 -0.219315 -1.23211 
-0.043541 -0.217986 -1.23887 
-0.03829 -0.217855 -1.23974 
-0.03754 -0.218264 -1.23811 
-0.155088 -0.222287 -1.2163 
-0.12437 -0.22156 -1.22148 
-0.06033 -0.21944 -1.23266 
-0.156643 -0.22258 -1.21522 
-0.12038 -0.221947 -1.2204 
-0.056375 -0.219179 -1.23383 
0.009103 -0.217396 -1.24452 
-0.134797 -0.222704 -1.21736 
-0.125585 -0.2227 -1.21756 
-0.040712 -0.219312 -1.23415 
-0.039764 -0.219062 -1.23502 
-0.164266 -0.223718 -1.21036 
-0.10183 -0.222003 -1.22125 
-0.017185 -0.218615 -1.23863 
-0.136498 -0.223703 -1.21381 
-0.072609 -0.220873 -1.22673 
-0.052191 -0.220331 -1.2301 
-0.162581 -0.22456 -1.20792 
-0.107232 -0.2227 -1.21825 
-0.07166 -0.221536 -1.22449 
-0.016683 -0.219386 -1.23569 
-0.1566 -0.224249 -1.20875 
-0.08009 -0.221828 -1.2231 
0.000462 -0.218973 -1.23896 
-0.104567 -0.222976 -1.21742 
-0.03024 -0.220276 -1.23143 
-0.155899 -0.22506 -1.20648 
-0.06243 -0.22192 -1.22371 
-0.029421 -0.220822 -1.22945 
-0.141557 -0.224816 -1.20878 
-0.120273 -0.224648 -1.21077 
-0.03863 -0.22117 -1.22747 
-0.008828 -0.220522 -1.23234 
0.034556 -0.218696 -1.24129 
-0.07107 -0.22271 -1.22029 
-0.020278 -0.220865 -1.22987 
-0.131269 -0.225421 -1.20772 
-0.094108 -0.224223 -1.21393 
-0.013279 -0.220954 -1.2304 
-0.118894 -0.225405 -1.20811 
-0.120526 -0.225424 -1.20799 
-0.034845 -0.221905 -1.22497 
0.024511 -0.220368 -1.23449 
-0.069921 -0.223258 -1.21836 
-0.08265 -0.22418 -1.21447 
-0.042495 -0.223032 -1.22072 
0.018795 -0.22054 -1.23363 
-0.123834 -0.226265 -1.20494 
-0.043502 -0.222893 -1.22124 
0.019291 -0.220931 -1.23227 
0.01686 -0.22172 -1.22944 
-0.105013 -0.225614 -1.20794 
-0.056056 -0.224091 -1.21628 
-0.017822 -0.222542 -1.22411 
-0.01476 -0.222366 -1.22501 
0.044599 -0.220666 -1.23469 
-0.038991 -0.223461 -1.21899 
0.038388 -0.221252 -1.23212 
-0.10094 -0.226164 -1.20629 
-0.04803 -0.22423 -1.21588 
-0.00337 -0.22321 -1.22321 
0.030452 -0.221741 -1.22989 
-0.136124 -0.227808 -1.19834 
-0.084485 -0.225985 -1.20782 
-0.049829 -0.224972 -1.21323 
0.004008 -0.22329 -1.22322 
0.060059 -0.221366 -1.23332 
-0.056167 -0.225427 -1.21148 
0.025646 -0.222588 -1.22625 
-0.121051 -0.228186 -1.19758 
-0.018858 -0.224136 -1.21812 
0.025304 -0.222761 -1.22513 
-0.115854 -0.227948 -1.19889 
-0.063502 -0.226063 -1.20882 
-0.01406 -0.224535 -1.21707 
0.068473 -0.221848 -1.23153 
-0.071037 -0.226972 -1.20482 
0.045635 -0.222625 -1.22746 
0.042247 -0.222837 -1.22625 
-0.097296 -0.228136 -1.19923 
-0.02187 -0.225459 -1.21303 
0.078761 -0.222032 -1.2318 
-0.04326 -0.226388 -1.20849 
0.03486 -0.223594 -1.22361 
0.07138 -0.2225 -1.22904 
-0.031645 -0.226247 -1.20934 
0.059266 -0.223004 -1.22695 
-0.093874 -0.228886 -1.1967 
-0.024143 -0.226139 -1.21035 
0.040812 -0.224 -1.22226 
-0.07588 -0.228193 -1.20027 
0.02843 -0.224695 -1.21905 
-0.090886 -0.229158 -1.19569 
0.070758 -0.223359 -1.22606 
0.07721 -0.223182 -1.22687 
-0.031715 -0.227087 -1.20647 
0.006132 -0.225957 -1.21362 
-0.092605 -0.229642 -1.19408 
-0.012657 -0.226554 -1.20996 
0.040796 -0.224902 -1.21869 
0.06052 -0.22436 -1.22192 
-0.050722 -0.228532 -1.20046 
-0.007017 -0.227318 -1.20791 
0.036476 -0.225352 -1.21722 
-0.08635 -0.230144 -1.19279 
-0.002871 -0.227685 -1.20691 
0.078764 -0.223979 -1.224 
-0.030497 -0.228261 -1.20252 
0.030592 -0.226234 -1.21377 
0.06221 -0.225052 -1.21927 
-0.053026 -0.229054 -1.19816 
-0.04875 -0.229365 -1.19732 
-0.003959 -0.228175 -1.20494 
-0.002125 -0.22787 -1.20606 
0.074933 -0.225026 -1.2198 
-0.049573 -0.229697 -1.19608 
0.041727 -0.22637 -1.21313 
0.080501 -0.225039 -1.22015 
-0.060854 -0.230728 -1.19156 
-0.053631 -0.230195 -1.19378 
-0.018421 -0.229053 -1.20059 
0.0145 -0.22857 -1.20448 
0.052833 -0.226836 -1.21233 
0.0552 -0.226847 -1.21245 
0.072214 -0.226431 -1.21449 
-0.056642 -0.231094 -1.19044 
0.06907 -0.226855 -1.21283 
-0.051418 -0.23097 -1.19162 
0.00885 -0.22936 -1.20141 
-0.006378 -0.22992 -1.19869 
0.02117 -0.22896 -1.203 
-0.022187 -0.2306 -1.19474 
0.004088 -0.230203 -1.19815 
0.044915 -0.228097 -1.20653 
-0.022806 -0.231057 -1.19281 
0.00615 -0.230247 -1.198 
0.03141 -0.229483 -1.20145 
-0.002265 -0.231013 -1.1953 
0.001542 -0.231283 -1.19433 
0.017407 -0.230714 -1.19695 
-0.000119 -0.231789 -1.19258 
-0.023066 -0.232113 -1.18911 
0.065117 -0.229429 -1.20355 
0.083685 -0.228295 -1.20833 
0.059783 -0.229458 -1.20289 
0.05133 -0.23005 -1.19968 
0.012823 -0.231975 -1.1921 
0.004365 -0.232567 -1.19 
0.057226 -0.230554 -1.19895 
0.014135 -0.232392 -1.19069 
0.003402 -0.232782 -1.18904 
0.066529 -0.230155 -1.20098 
0.072194 -0.230914 -1.19868 
0.017207 -0.232954 -1.18888 
0.054114 -0.231475 -1.195 
0.04928 -0.23208 -1.19259 
0.047028 -0.232351 -1.19151 
0.056278 -0.232808 -1.19067 
0.05459 -0.23336 -1.18863 
0.050138 -0.233513 -1.1876 
0.073126 -0.233566 -1.189 
-0.170088 -0.226208 -1.20178 
-0.158927 -0.227222 -1.19898 
-0.146904 -0.22756 -1.19852 
-0.142115 -0.227838 -1.19781 
-0.147081 -0.228826 -1.19406 
-0.14448 -0.229005 -1.19375 
-0.166407 -0.230086 -1.18843 
-0.124154 -0.229206 -1.19386 
-0.118934 -0.229176 -1.19458 
-0.117818 -0.229494 -1.19335 
-0.154349 -0.231355 -1.1842 
-0.146256 -0.231075 -1.18584 
-0.143835 -0.231355 -1.18502 
-0.158494 -0.232544 -1.17977 
-0.120684 -0.231773 -1.18527 
-0.106235 -0.231307 -1.18742 
-0.098702 -0.231289 -1.18811 
-0.0883 -0.231236 -1.18854 
-0.079138 -0.231104 -1.18975 
-0.094019 -0.23205 -1.18532 
-0.114744 -0.232944 -1.18098 
-0.112048 -0.233194 -1.18023 
-0.073117 -0.232082 -1.18604 
-0.068676 -0.232267 -1.18559 
-0.106691 -0.234277 -1.17697 
-0.121749 -0.234292 -1.17493 
-0.099552 -0.234116 -1.17772 
-0.105881 -0.234543 -1.17608 
-0.051509 -0.232632 -1.18555 
-0.049777 -0.232778 -1.1851 
-0.089702 -0.234126 -1.1774 
-0.032099 -0.232919 -1.18561 
-0.08663 -0.234315 -1.1772 
-0.115716 -0.235929 -1.17009 
-0.109323 -0.236058 -1.16991 
-0.04787 -0.233936 -1.18078 
-0.062377 -0.23455 -1.17766 
-0.091166 -0.235451 -1.17276 
-0.0184 -0.23347 -1.18495 
-0.035725 -0.233695 -1.18251 
-0.019548 -0.233939 -1.18301 
-0.034839 -0.23444 -1.18024 
-0.025783 -0.2342 -1.1815 
-0.029758 -0.234266 -1.18084 
-0.002867 -0.233815 -1.18524 
-0.011964 -0.234258 -1.18262 
-0.117524 -0.237634 -1.16372 
0.010994 -0.233863 -1.18551 
-0.004756 -0.234673 -1.18191 
-0.04377 -0.235653 -1.17466 
-0.035013 -0.235457 -1.17578 
-0.06173 -0.236345 -1.17131 
-0.03921 -0.235986 -1.17374 
-0.052905 -0.236698 -1.17048 
-0.01128 -0.235534 -1.17786 
-0.095045 -0.23794 -1.16356 
0.015858 -0.234564 -1.18329 
-0.090065 -0.238187 -1.16272 
-0.040331 -0.236561 -1.17196 
-0.020599 -0.236421 -1.17376 
-0.003822 -0.235762 -1.17785 
-0.003003 -0.235985 -1.17708 
0.016621 -0.235328 -1.18049 
-0.09999 -0.23939 -1.15791 
-0.108978 -0.2396 -1.15689 
-0.08582 -0.238719 -1.16093 
-0.061514 -0.238389 -1.164 
-0.016065 -0.236725 -1.17306 
-0.002144 -0.236783 -1.17438 
-0.084805 -0.239311 -1.159 
-0.043828 -0.238227 -1.16557 
0.014332 -0.236399 -1.17646 
-0.102537 -0.240826 -1.15263 
-0.098866 -0.240227 -1.15491 
-0.046996 -0.238546 -1.16438 
0.002854 -0.237355 -1.17234 
0.026626 -0.236866 -1.17515 
0.057965 -0.235448 -1.18149 
-0.092703 -0.240634 -1.15392 
-0.046189 -0.239269 -1.16149 
-0.020977 -0.238583 -1.16575 
0.030893 -0.236793 -1.17547 
-0.109972 -0.241308 -1.14998 
-0.062498 -0.240092 -1.1578 
-0.025 -0.23882 -1.16461 
0.01467 -0.237907 -1.17079 
0.06559 -0.236014 -1.17917 
-0.109468 -0.241654 -1.14862 
-0.060557 -0.240408 -1.15661 
-0.042007 -0.239858 -1.15979 
-0.033502 -0.239943 -1.1601 
-0.016665 -0.23957 -1.16274 
-0.011703 -0.239388 -1.16378 
-0.01744 -0.24006 -1.16067 
0.008484 -0.238746 -1.16696 
-0.105406 -0.242774 -1.14541 
-0.078344 -0.241869 -1.15007 
-0.070355 -0.241915 -1.15067 
-0.051657 -0.241688 -1.15262 
-0.055186 -0.241565 -1.15289 
-0.049473 -0.241828 -1.15211 
-0.004088 -0.240467 -1.16088 
-0.00974 -0.24103 -1.15796 
0.005156 -0.240183 -1.16186 
0.006297 -0.240319 -1.1614 
2.4e-05 -0.240861 -1.15947 
0.0193 -0.2402 -1.16223 
-0.031547 -0.241811 -1.15376 
-0.020127 -0.241727 -1.15464 
-0.005506 -0.241314 -1.15755 
-0.0661 -0.243482 -1.14538 
-0.01882 -0.24207 -1.15335 
-0.00149 -0.242075 -1.15516 
0.000735 -0.242302 -1.15424 
0.009562 -0.241961 -1.15617 
0.025551 -0.241279 -1.15908 
0.027129 -0.241356 -1.15916 
-0.036577 -0.243282 -1.14768 
-0.011848 -0.242953 -1.15058 
-0.040408 -0.243847 -1.14563 
-0.062295 -0.244873 -1.14012 
0.022532 -0.242207 -1.15547 
0.023855 -0.24248 -1.15461 
-0.011028 -0.243322 -1.1494 
-0.040406 -0.24458 -1.14275 
0.01786 -0.243092 -1.15202 
0.02115 -0.243405 -1.15144 
-0.003277 -0.244257 -1.14691 
-0.059592 -0.245806 -1.13688 
0.022147 -0.243725 -1.15027 
-0.002666 -0.24462 -1.14541 
-0.04379 -0.245705 -1.1381 
-0.008682 -0.244939 -1.14372 
-0.045575 -0.246341 -1.13562 
-0.058613 -0.246996 -1.13268 
-0.032961 -0.245901 -1.13823 
0.013577 -0.245482 -1.1433 
0.006106 -0.245966 -1.14087 
-0.016175 -0.246846 -1.13617 
-0.022399 -0.247169 -1.1346 
-0.01418 -0.24748 -1.134 
-0.016719 -0.247971 -1.1315 
0.016182 -0.127517 -1.12892 
0.00123 -0.12349 -1.13592 
0.009695 -0.124642 -1.13704 
0.002936 -0.122093 -1.14371 
0.01 -0.12256 -1.14339 
0.013325 -0.120862 -1.14701 
0.01873 -0.100093 -1.167 
-0.00413 -0.093075 -1.19835 
-5.9e-05 -0.094728 -1.18777 
-0.002711 -0.09236 -1.19282 
0.012514 -0.098398 -1.16978 
-0.009377 -0.089627 -1.1987 
0.009174 -0.096553 -1.17239 
0.012656 -0.094686 -1.17179 
0.004273 -0.090735 -1.17696 
0.003058 -0.088073 -1.17862 
0.007451 -0.085201 -1.17703 
0.011298 -0.098928 -1.16994 
0.018776 -0.243499 -1.14141 
0.076192 -0.232519 -1.18025 
0.025068 -0.241332 -1.14852 
0.02821 -0.2389 -1.15339 
0.076935 -0.230082 -1.1796 
0.022464 -0.238684 -1.14285 
0.03463 -0.232533 -1.1789 
0.037275 -0.228977 -1.19461 
0.076661 -0.226116 -1.17774 
0.078501 -0.224505 -1.17871 
0.077307 -0.223278 -1.17726 
0.03759 -0.22545 -1.17623 
0.038201 -0.224402 -1.17681 
0.041784 -0.221003 -1.18945 
0.04002 -0.221235 -1.17598 
0.07741 -0.21458 -1.176 
0.04309 -0.21767 -1.17559 
0.038987 -0.218726 -1.15969 
0.042329 -0.215522 -1.16189 
0.075192 -0.209783 -1.17419 
0.027267 -0.216847 -1.14072 
0.049692 -0.209576 -1.17242 
0.050504 -0.209051 -1.17532 
0.03981 -0.210433 -1.15134 
0.047067 -0.208557 -1.16051 
0.044894 -0.208183 -1.15663 
0.04976 -0.205035 -1.16174 
0.049273 -0.204452 -1.16027 
0.064388 -0.199821 -1.16857 
0.069275 -0.198267 -1.17022 
0.055838 -0.198169 -1.1658 
0.056258 -0.196871 -1.16542 
0.060323 -0.193711 -1.16591 
0.058105 -0.191772 -1.16442 
0.08398 -0.18479 -1.18408 
0.077087 -0.184058 -1.17691 
0.012106 -0.193161 -1.13246 
0.02274 -0.191602 -1.13723 
0.079908 -0.18093 -1.17984 
0.0776 -0.17986 -1.17767 
0.076965 -0.176909 -1.1773 
0.07538 -0.177725 -1.17582 
0.027341 -0.183163 -1.14194 
0.015385 -0.18598 -1.13586 
0.077762 -0.173415 -1.17841 
0.016679 -0.183363 -1.13724 
0.05163 -0.176174 -1.16125 
0.032653 -0.17767 -1.14748 
0.046898 -0.172645 -1.15974 
0.06029 -0.170571 -1.16671 
0.055445 -0.166415 -1.16451 
0.000257 -0.169348 -1.13644 
0.00303 -0.165035 -1.13966 
0.060328 -0.149471 -1.16743 
0.059111 -0.141341 -1.16922 
0.025578 -0.135907 -1.16812 
0.051883 -0.128692 -1.17558 
0.014658 -0.125485 -1.17284 
-0.000373 -0.124843 -1.16304 
0.01333 -0.111315 -1.18633 
0.035748 -0.230861 -1.19108 
0.037313 -0.227837 -1.19241 
0.038812 -0.224463 -1.18448 
0.04161 -0.219695 -1.18324 
0.045731 -0.215447 -1.18306 
0.050775 -0.208087 -1.17324 
0.091061 -0.223517 -1.21621 
0.086806 -0.229684 -1.19232 
0.087627 -0.226635 -1.1922 
0.03118 -0.23851 -1.1627 
0.032044 -0.231687 -1.16007 
0.035696 -0.225279 -1.16342 
0.041049 -0.216705 -1.16104 
0.08793 -0.17853 -1.20132 
0.084953 -0.178793 -1.18658 
0.086169 -0.171409 -1.20026 
0.08522 -0.16714 -1.2024 
0.085131 -0.167336 -1.19934 
0.084005 -0.164695 -1.19558 
0.083354 -0.1611 -1.20098 
0.08247 -0.158462 -1.20138 
0.081487 -0.155712 -1.20103 
0.079539 -0.151444 -1.20345 
0.07782 -0.154175 -1.18367 
0.076027 -0.150437 -1.18224 
0.07712 -0.14474 -1.19675 
0.07326 -0.14729 -1.17891 
0.073963 -0.140594 -1.19003 
0.0714 -0.13775 -1.18671 
0.070267 -0.136918 -1.18466 
0.068235 -0.13363 -1.18654 
0.064551 -0.129052 -1.18886 
0.061615 -0.12841 -1.18406 
0.05771 -0.12431 -1.18829 
0.054553 -0.122182 -1.18989 
0.048145 -0.119615 -1.18901 
0.04191 -0.11782 -1.18892 
0.036095 -0.113265 -1.19826 
0.031265 -0.112625 -1.19466 
-0.004163 -0.125968 -1.15036 
0.001294 -0.120508 -1.16569 
0.003358 -0.11623 -1.17377 
0.001985 -0.117848 -1.16814 
0.003265 -0.115191 -1.17456 
0.002063 -0.113476 -1.17318 
0.014264 -0.103958 -1.19948 
0.03226 -0.237808 -1.16775 
0.033969 -0.232727 -1.16997 
0.038431 -0.222996 -1.17204 
0.08731 -0.191635 -1.21754 
0.07738 -0.147607 -1.20488 
0.065186 -0.130082 -1.2009 
0.013608 -0.103632 -1.20091 
0.004995 -0.244978 -1.13337 
-0.003911 -0.238212 -1.12802 
0.012567 -0.23316 -1.13189 
-0.008425 -0.228207 -1.12473 
-3.2e-05 -0.223163 -1.12586 
0.00506 -0.19392 -1.1297 
0.00731 -0.189533 -1.13181 
0.00053 -0.18712 -1.13049 
-0.005175 -0.183705 -1.12961 
0.001485 -0.181262 -1.13246 
-0.024234 -0.172114 -1.128 
-0.033008 -0.163793 -1.12837 
-0.026344 -0.15991 -1.13023 
-0.035812 -0.153453 -1.13067 
-0.016097 -0.148439 -1.13491 
-0.033376 -0.1425 -1.13595 
-0.038007 -0.139883 -1.13551 
-0.025951 -0.137319 -1.13849 
-0.026903 -0.13517 -1.13847 
0.070296 -0.233299 -1.17816 
0.071413 -0.219127 -1.17361 
0.056904 -0.203795 -1.16969 
0.058456 -0.196774 -1.16649 
0.046926 -0.151819 -1.16386 
0.03291 -0.144193 -1.16625 
0.030871 -0.132004 -1.17172 
-0.103542 -0.242237 -1.14118 
-0.099149 -0.238682 -1.13671 
-0.105549 -0.227227 -1.1379 
-0.105211 -0.222184 -1.13642 
-0.09925 -0.217704 -1.13216 
-0.104332 -0.211258 -1.13409 
-0.0993 -0.20577 -1.13121 
-0.106342 -0.193601 -1.13385 
-0.10739 -0.17434 -1.13759 
-0.095197 -0.149181 -1.14015 
-0.112452 -0.210275 -1.13917 
-0.145554 -0.198031 -1.16353 
-0.147794 -0.195753 -1.16328 
-0.113385 -0.20188 -1.13779 
-0.133844 -0.19474 -1.15428 
-0.14533 -0.18838 -1.15912 
-0.120555 -0.193545 -1.14172 
-0.12481 -0.18964 -1.14507 
-0.137474 -0.1848 -1.1539 
-0.112851 -0.188374 -1.13747 
-0.1212 -0.18565 -1.14246 
-0.14858 -0.17683 -1.15768 
-0.133433 -0.177777 -1.15053 
-0.132041 -0.176021 -1.14976 
-0.141672 -0.172785 -1.15324 
-0.144819 -0.170466 -1.15423 
-0.13845 -0.17078 -1.15161 
-0.15281 -0.16376 -1.15695 
-0.13462 -0.169217 -1.15027 
-0.149908 -0.162119 -1.155 
-0.12098 -0.165477 -1.14663 
-0.110615 -0.155535 -1.14493 
-0.090157 -0.243252 -1.13431 
-0.0913 -0.235178 -1.13203 
-0.087247 -0.228013 -1.12899 
-0.08427 -0.224671 -1.12732 
-0.07887 -0.220042 -1.12513 
-0.076765 -0.216855 -1.12436 
-0.095559 -0.210963 -1.13011 
-0.089549 -0.20663 -1.12774 
-0.093534 -0.202477 -1.12899 
-0.10174 -0.198638 -1.13185 
-0.100938 -0.192643 -1.13186 
-0.094582 -0.185139 -1.13067 
-0.101666 -0.182146 -1.13339 
-0.077098 -0.178764 -1.1276 
-0.076066 -0.17656 -1.12781 
-0.094472 -0.170136 -1.13448 
-0.06061 -0.169476 -1.12603 
-0.065219 -0.165611 -1.12738 
-0.078005 -0.16144 -1.13168 
-0.080245 -0.157412 -1.13306 
-0.075696 -0.153612 -1.13192 
-0.07744 -0.148425 -1.13309 
-0.077979 -0.143854 -1.13415 
-0.080867 -0.136615 -1.13826 
-0.080974 -0.13239 -1.14094 
-0.141108 -0.202605 -1.16533 
-0.048371 -0.245906 -1.13148 
-0.070263 -0.244518 -1.13011 
-0.051588 -0.245297 -1.1309 
-0.08098 -0.242831 -1.1314 
-0.018193 -0.243874 -1.12821 
-0.059867 -0.24044 -1.12848 
-0.047288 -0.240417 -1.12941 
-0.0781 -0.239285 -1.12937 
-0.066816 -0.238045 -1.12776 
-0.03962 -0.236985 -1.12847 
-0.05202 -0.23498 -1.12763 
-0.007445 -0.236378 -1.12698 
-0.049454 -0.230833 -1.127 
-0.030493 -0.23168 -1.12582 
-0.0127 -0.232334 -1.12534 
-0.02859 -0.23098 -1.12533 
-0.017146 -0.228169 -1.12396 
-0.075306 -0.225215 -1.1254 
-0.045162 -0.224953 -1.12603 
-0.055128 -0.223013 -1.12428 
-0.060601 -0.22155 -1.1235 
-0.061989 -0.221119 -1.1234 
-0.056474 -0.219613 -1.12351 
-0.042531 -0.216678 -1.125 
-0.02167 -0.21818 -1.12278 
-0.03991 -0.21777 -1.12506 
-0.015735 -0.21446 -1.12276 
-0.040171 -0.214359 -1.12483 
-0.024665 -0.211075 -1.12297 
-0.033341 -0.209519 -1.12405 
-0.03342 -0.20741 -1.12406 
-0.035802 -0.204733 -1.12417 
-0.04986 -0.203223 -1.12296 
-0.03736 -0.198735 -1.12396 
-0.047757 -0.195135 -1.1231 
-0.036667 -0.191997 -1.12416 
-0.06705 -0.189227 -1.12404 
-0.03304 -0.187924 -1.12472 
-0.018208 -0.188142 -1.12642 
-0.02675 -0.185195 -1.12564 
-0.059492 -0.181427 -1.1243 
-0.058035 -0.178383 -1.12468 
-0.043655 -0.176288 -1.12538 
-0.058459 -0.172557 -1.12548 
-0.059915 -0.171586 -1.1257 
-0.060938 -0.165673 -1.1266 
-0.054148 -0.162725 -1.12665 
-0.05152 -0.157075 -1.12771 
-0.036954 -0.154772 -1.13014 
-0.057021 -0.151455 -1.12876 
-0.029358 -0.149331 -1.13282 
-0.046825 -0.145585 -1.13116 
-0.063376 -0.143264 -1.13215 
-0.049474 -0.139579 -1.1337 
-0.071181 -0.13723 -1.1362 
0.047926 -0.232608 -1.18585 
0.054251 -0.231065 -1.18027 
0.046221 -0.227898 -1.18726 
0.047733 -0.226733 -1.18516 
0.062743 -0.225749 -1.17514 
0.051058 -0.222709 -1.18037 
0.055476 -0.22097 -1.1761 
0.046245 -0.218913 -1.18446 
0.046867 -0.215179 -1.18157 
0.049956 -0.213435 -1.17771 
0.053269 -0.211589 -1.17435 
0.056519 -0.20713 -1.17075 
0.04598 -0.145905 -1.16553 
0.046449 -0.138949 -1.16871 
0.03662 -0.132736 -1.17179 
0.032408 -0.124659 -1.17784 
4e-05 -0.119663 -1.1544 
0.002359 -0.108349 -1.17915 
0.002795 -0.107465 -1.17446 
0.003838 -0.10909 -1.16692 
0.072313 -0.214808 -1.23694 
0.040377 -0.214551 -1.24685 
0.076662 -0.211811 -1.23473 
0.019256 -0.208437 -1.265 
0.031645 -0.207959 -1.25571 
0.04582 -0.213482 -1.23942 
0.037375 -0.207266 -1.2499 
0.045517 -0.207903 -1.24063 
0.01837 -0.203423 -1.26528 
0.02532 -0.20079 -1.2605 
0.039709 -0.203666 -1.24786 
0.04333 -0.20211 -1.24453 
0.081342 -0.201432 -1.22808 
0.08056 -0.19805 -1.22805 
0.07825 -0.19884 -1.23049 
0.088301 -0.199906 -1.21918 
0.046733 -0.19707 -1.24151 
0.045148 -0.194403 -1.24355 
0.050032 -0.194252 -1.23767 
0.030964 -0.190031 -1.25481 
0.07634 -0.190587 -1.22992 
0.068861 -0.189416 -1.23446 
0.08585 -0.191963 -1.22016 
0.067083 -0.186319 -1.2346 
0.049622 -0.187325 -1.23948 
0.029063 -0.183366 -1.2549 
0.028364 -0.180829 -1.25471 
0.047745 -0.18276 -1.24162 
0.08612 -0.18431 -1.21657 
0.074615 -0.181513 -1.22915 
0.033764 -0.17582 -1.2504 
0.045024 -0.177811 -1.24367 
0.050132 -0.177377 -1.23977 
0.0306 -0.172383 -1.2513 
0.05203 -0.174203 -1.23871 
0.056495 -0.173135 -1.2364 
0.077875 -0.17366 -1.22353 
0.049787 -0.170027 -1.23947 
0.079997 -0.17199 -1.22044 
0.058052 -0.167717 -1.23439 
0.025272 -0.164085 -1.25111 
0.06822 -0.16545 -1.22759 
0.03822 -0.16118 -1.24424 
0.071905 -0.16383 -1.22445 
0.042839 -0.159756 -1.24085 
0.037859 -0.157746 -1.24303 
0.079425 -0.160375 -1.21424 
0.050175 -0.15536 -1.23418 
0.077459 -0.157273 -1.21516 
0.039182 -0.152696 -1.24011 
0.058117 -0.154031 -1.22872 
0.07485 -0.150205 -1.21299 
0.070636 -0.142561 -1.21147 
0.066646 -0.136307 -1.21025 
0.066553 -0.133591 -1.20638 
0.030086 -0.122084 -1.22566 
0.049477 -0.121825 -1.21144 
0.047051 -0.119979 -1.21092 
0.055146 -0.121836 -1.19967 
0.04411 -0.117388 -1.20852 
0.046658 -0.117249 -1.20055 
0.022664 -0.111309 -1.21615 
0.03253 -0.11162 -1.2035 
0.015912 -0.105284 -1.20742 
0.000529 -0.097608 -1.20307 
0.004114 -0.112552 -1.16211 
0.010108 -0.206117 -1.26875 
-0.01141 -0.202205 -1.27177 
-0.01985 -0.19597 -1.27102 
0.013945 -0.19148 -1.26503 
0.009464 -0.182724 -1.26412 
0.00704 -0.17311 -1.26144 
0.00625 -0.167595 -1.25951 
0.00731 -0.16101 -1.25653 
0.029994 -0.160372 -1.24787 
0.013556 -0.154186 -1.25165 
0.013929 -0.146547 -1.24793 
0.022625 -0.14374 -1.24341 
0.02135 -0.13736 -1.23987 
0.012613 -0.130155 -1.23842 
0.01373 -0.125901 -1.2354 
0.021017 -0.122052 -1.22998 
-0.004885 -0.116272 -1.23377 
-0.001892 -0.113914 -1.2307 
-0.000167 -0.11032 -1.2262 
0.012099 -0.109061 -1.21885 
0.002885 -0.104374 -1.21575 
-0.008755 -0.10022 -1.21415 
0.070023 -0.209204 -1.23701 
0.063475 -0.190342 -1.23618 
0.05918 -0.180705 -1.23603 
0.047889 -0.215775 -1.23468 
0.05106 -0.20441 -1.23324 
-0.11234 -0.205611 -1.26265 
-0.104148 -0.20175 -1.26601 
-0.098375 -0.197339 -1.26673 
-0.107925 -0.19204 -1.26274 
-0.113154 -0.18699 -1.25954 
-0.116645 -0.18121 -1.25612 
-0.118663 -0.178147 -1.25389 
-0.11239 -0.17013 -1.25429 
-0.111652 -0.163062 -1.25167 
-0.109245 -0.15618 -1.24944 
-0.114762 -0.151578 -1.24403 
-0.112105 -0.145855 -1.24185 
-0.105975 -0.143054 -1.24275 
-0.105319 -0.138369 -1.2396 
-0.10382 -0.133222 -1.2364 
-0.120784 -0.131045 -1.22385 
-0.114497 -0.127648 -1.22473 
-0.0952 -0.121945 -1.2318 
-0.094052 -0.117586 -1.22827 
-0.106415 -0.11563 -1.21888 
-0.102959 -0.112056 -1.21633 
-0.0885 -0.108031 -1.21809 
-0.086993 -0.104801 -1.21335 
-0.087685 -0.10102 -1.20595 
-0.082091 -0.203759 -1.27398 
-0.087699 -0.198124 -1.26948 
-0.027275 -0.11904 -1.23279 
-0.030931 -0.206218 -1.27615 
-0.012298 -0.20713 -1.27267 
-0.002063 -0.208397 -1.27083 
-0.000241 -0.207665 -1.27066 
-0.044782 -0.203304 -1.27495 
-0.028579 -0.202997 -1.27568 
-0.025359 -0.201119 -1.27465 
0.001325 -0.20319 -1.26991 
-0.000425 -0.203186 -1.27012 
-0.029587 -0.197933 -1.27315 
-0.09615 -0.1996 -1.26787 
-0.039343 -0.196195 -1.27248 
-0.05914 -0.195926 -1.27382 
-0.043526 -0.193683 -1.27087 
-0.076025 -0.193549 -1.27143 
-0.02653 -0.19382 -1.27097 
-0.007765 -0.194761 -1.26836 
-0.063965 -0.190337 -1.27188 
-0.090224 -0.192501 -1.26702 
-0.0484 -0.19203 -1.26995 
-0.02295 -0.190925 -1.26913 
-0.087611 -0.191834 -1.26731 
0.003355 -0.189145 -1.26692 
-0.003508 -0.186796 -1.26685 
-0.037594 -0.18555 -1.26695 
-0.085829 -0.187036 -1.26592 
-0.048299 -0.18509 -1.26662 
-0.092575 -0.182975 -1.26359 
-0.079453 -0.181694 -1.26539 
-0.061375 -0.18053 -1.26664 
-0.06698 -0.178454 -1.26589 
-0.008999 -0.18029 -1.26473 
-0.065625 -0.178232 -1.26575 
-0.009285 -0.175835 -1.26312 
-0.047075 -0.178175 -1.26252 
-0.04005 -0.177455 -1.26217 
-0.08425 -0.175465 -1.26146 
-0.00258 -0.17439 -1.2628 
-0.059265 -0.171854 -1.26122 
-0.016874 -0.171566 -1.26056 
-0.075265 -0.171 -1.26054 
-0.011055 -0.17093 -1.26109 
-0.089416 -0.16996 -1.25868 
-0.04642 -0.168345 -1.25644 
-0.060194 -0.167526 -1.25865 
-0.072568 -0.16605 -1.25807 
-0.022783 -0.165715 -1.25754 
-0.0455 -0.16579 -1.25484 
-0.063835 -0.164164 -1.25697 
-0.028148 -0.16506 -1.25649 
-0.058612 -0.162832 -1.25532 
-0.006005 -0.15917 -1.25713 
-0.025608 -0.160692 -1.25489 
-0.019415 -0.16008 -1.2558 
-0.017835 -0.15844 -1.25543 
-0.06745 -0.15833 -1.25346 
-0.076206 -0.157406 -1.25264 
-0.09234 -0.15575 -1.25176 
-0.10063 -0.15526 -1.25151 
-0.02765 -0.1547 -1.25186 
-0.05993 -0.15422 -1.25028 
-0.077735 -0.154212 -1.25086 
-0.099745 -0.152805 -1.25031 
-0.000245 -0.150935 -1.25315 
-0.02618 -0.15008 -1.2501 
-0.047485 -0.14993 -1.24593 
-0.016073 -0.146385 -1.25047 
-0.012067 -0.14592 -1.25083 
-0.015624 -0.143916 -1.24948 
-0.0298 -0.14459 -1.24632 
-0.094977 -0.142284 -1.24491 
-0.04161 -0.14274 -1.24235 
-0.085969 -0.141495 -1.24425 
-0.012095 -0.139783 -1.24786 
-0.012503 -0.136869 -1.24644 
-0.081758 -0.13747 -1.24138 
-0.031168 -0.136053 -1.24148 
-0.062011 -0.13633 -1.23929 
-0.084056 -0.133684 -1.23916 
-0.09987 -0.133431 -1.23798 
-0.04375 -0.135555 -1.23776 
-0.048775 -0.13364 -1.23605 
-0.09056 -0.13002 -1.23727 
-0.076123 -0.129571 -1.23654 
-0.071539 -0.127974 -1.23503 
-0.054223 -0.12782 -1.23262 
-0.058425 -0.127874 -1.23323 
-0.042185 -0.12525 -1.23135 
-0.003173 -0.122804 -1.23843 
-0.036674 -0.12306 -1.23177 
-0.020877 -0.119809 -1.2357 
-0.085254 -0.120256 -1.23203 
-0.040574 -0.121256 -1.22904 
-0.042159 -0.119569 -1.22737 
-0.060605 -0.11833 -1.22703 
-0.073264 -0.11582 -1.22724 
-0.08584 -0.114384 -1.22682 
-0.007415 -0.111895 -1.22978 
-0.01182 -0.110429 -1.22861 
-0.007388 -0.107934 -1.22519 
-0.083215 -0.106704 -1.21774 
-0.012389 -0.103172 -1.21966 
-0.018338 -0.098841 -1.21518 
0.064544 -0.217088 -1.23816 
0.053661 -0.214835 -1.23544 
0.051473 -0.21383 -1.23405 
0.065286 -0.207816 -1.23734 
0.058635 -0.20409 -1.23633 
0.051324 -0.203752 -1.23334 
0.063136 -0.198608 -1.23676 
0.05983 -0.193692 -1.23637 
0.059642 -0.186918 -1.23624 
-0.120859 -0.208116 -1.2567 
-0.116025 -0.200435 -1.25996 
-0.12029 -0.190864 -1.25579 
-0.121475 -0.172323 -1.24972 
-0.119807 -0.15582 -1.24311 
-0.114445 -0.116137 -1.2137 
-0.123742 -0.114186 -1.1995 
-0.10027 -0.10579 -1.2052 
-0.109845 -0.107195 -1.18043 
-0.090019 -0.098679 -1.19752 
-0.07454 -0.096248 -1.20465 
-0.105639 -0.105216 -1.18287 
-0.167996 -0.215625 -1.22825 
-0.123896 -0.211548 -1.2525 
-0.12674 -0.209746 -1.24952 
-0.125254 -0.208578 -1.25177 
-0.15845 -0.20662 -1.23491 
-0.159835 -0.203655 -1.23372 
-0.156114 -0.205152 -1.23542 
-0.163371 -0.202766 -1.23125 
-0.13477 -0.20517 -1.23668 
-0.164281 -0.198791 -1.22953 
-0.123934 -0.195478 -1.25326 
-0.123971 -0.192892 -1.25304 
-0.140009 -0.198628 -1.23236 
-0.126023 -0.191045 -1.25117 
-0.124878 -0.188755 -1.25197 
-0.15762 -0.192 -1.23189 
-0.133556 -0.190634 -1.24358 
-0.1652 -0.18942 -1.2266 
-0.140176 -0.190041 -1.23161 
-0.140618 -0.18944 -1.23116 
-0.161363 -0.183921 -1.22806 
-0.169161 -0.184129 -1.2196 
-0.140658 -0.183381 -1.23099 
-0.159226 -0.180906 -1.22821 
-0.16372 -0.17937 -1.22456 
-0.160948 -0.178923 -1.22649 
-0.16679 -0.17738 -1.22004 
-0.16323 -0.176255 -1.22361 
-0.160448 -0.17319 -1.22451 
-0.143563 -0.174172 -1.22819 
-0.141686 -0.171516 -1.22854 
-0.167921 -0.172549 -1.21466 
-0.146364 -0.169485 -1.22765 
-0.137153 -0.167572 -1.23502 
-0.130893 -0.165175 -1.23957 
-0.148827 -0.165551 -1.22633 
-0.166572 -0.167195 -1.21309 
-0.124788 -0.159497 -1.24135 
-0.148745 -0.161415 -1.22493 
-0.135085 -0.1575 -1.23304 
-0.132074 -0.156339 -1.23467 
-0.139141 -0.156647 -1.22955 
-0.162494 -0.157616 -1.21144 
-0.16532 -0.15891 -1.20755 
-0.12093 -0.149082 -1.2383 
-0.133152 -0.151041 -1.23104 
-0.129555 -0.148282 -1.23188 
-0.153047 -0.149575 -1.21532 
-0.135695 -0.144959 -1.22591 
-0.12992 -0.143165 -1.22845 
-0.131136 -0.140898 -1.22606 
-0.14219 -0.134429 -1.21016 
-0.123808 -0.126117 -1.21748 
-0.124032 -0.122682 -1.2137 
-0.141399 -0.121373 -1.18585 
-0.09256 -0.09833 -1.18778 
-0.135154 -0.215736 -1.23395 
-0.15116 -0.207105 -1.23639 
-0.141858 -0.204915 -1.23386 
-0.141328 -0.199595 -1.23258 
-0.148205 -0.19231 -1.23277 
-0.144593 -0.186885 -1.23066 
-0.149116 -0.177234 -1.22934 
-0.17424 -0.220735 -1.21424 
-0.171873 -0.21753 -1.22316 
-0.1717 -0.214942 -1.22332 
-0.174962 -0.214368 -1.20866 
-0.16968 -0.209922 -1.22621 
-0.1725 -0.21035 -1.21985 
-0.174784 -0.21148 -1.19865 
-0.17406 -0.20664 -1.21321 
-0.172035 -0.200685 -1.21805 
-0.172648 -0.208225 -1.19063 
-0.175545 -0.198835 -1.20403 
-0.1757 -0.199645 -1.20155 
-0.17573 -0.1965 -1.20315 
-0.16986 -0.190697 -1.22077 
-0.17449 -0.18988 -1.20835 
-0.171573 -0.185893 -1.21541 
-0.174513 -0.186137 -1.2068 
-0.175755 -0.18542 -1.19565 
-0.17549 -0.18189 -1.19384 
-0.17078 -0.17567 -1.21159 
-0.169913 -0.170415 -1.20925 
-0.167333 -0.160446 -1.20498 
-0.16563 -0.155645 -1.20222 
-0.166719 -0.154199 -1.19481 
-0.162753 -0.150012 -1.19961 
-0.163847 -0.149208 -1.19431 
-0.164113 -0.1476 -1.18872 
-0.161797 -0.145075 -1.19183 
-0.159924 -0.142814 -1.19286 
-0.162054 -0.141951 -1.18213 
-0.157002 -0.138067 -1.19042 
-0.16054 -0.14013 -1.17034 
-0.157469 -0.135331 -1.18222 
-0.157393 -0.137164 -1.16579 
-0.153715 -0.130628 -1.18238 
-0.152217 -0.128283 -1.17734 
-0.150903 -0.129912 -1.16614 
-0.148272 -0.125383 -1.17302 
-0.138598 -0.119798 -1.17869 
-0.115315 -0.11004 -1.17594 
-0.167593 -0.214682 -1.22936 
-0.134875 -0.198195 -1.23957 
-0.139185 -0.18434 -1.23487 
-0.141094 -0.168628 -1.22971 
-0.157202 -0.140185 -1.16235 
-0.170713 -0.221823 -1.18878 
-0.122109 -0.228448 -1.17054 
-0.120552 -0.226088 -1.16534 
-0.11952 -0.224265 -1.16008 
-0.17267 -0.19287 -1.18542 
-0.172662 -0.177155 -1.18333 
-0.108349 -0.240564 -1.14574 
-0.111505 -0.233758 -1.14742 
-0.10917 -0.227656 -1.14171 
-0.169763 -0.228171 -1.18885 
-0.169552 -0.226019 -1.18678 
-0.117907 -0.236878 -1.15933 
-0.122587 -0.233029 -1.17543 
-0.157597 -0.224507 -1.17579 
-0.160967 -0.222221 -1.17721 
-0.155628 -0.223789 -1.17502 
-0.11785 -0.22851 -1.15746 
-0.171951 -0.213572 -1.19046 
-0.11285 -0.22779 -1.14632 
-0.155168 -0.215931 -1.17266 
-0.154084 -0.215163 -1.17206 
-0.159328 -0.211685 -1.17362 
-0.115555 -0.220905 -1.14682 
-0.114032 -0.221505 -1.14485 
-0.162574 -0.208029 -1.17554 
-0.12755 -0.214552 -1.16874 
-0.11955 -0.21594 -1.14935 
-0.12862 -0.21215 -1.16534 
-0.124906 -0.213016 -1.15613 
-0.113013 -0.216333 -1.1416 
-0.149602 -0.205067 -1.16746 
-0.136499 -0.205964 -1.16786 
-0.13415 -0.205538 -1.16622 
-0.135249 -0.205175 -1.16822 
-0.135643 -0.2039 -1.16705 
-0.134293 -0.203839 -1.16298 
-0.121966 -0.206432 -1.14681 
-0.119235 -0.2035 -1.14276 
-0.16139 -0.192565 -1.17123 
-0.16325 -0.191425 -1.17256 
-0.169508 -0.187035 -1.17817 
-0.132252 -0.195823 -1.15314 
-0.15484 -0.18739 -1.16488 
-0.157218 -0.184605 -1.1659 
-0.168732 -0.178895 -1.17521 
-0.169465 -0.175845 -1.1757 
-0.155744 -0.177182 -1.16261 
-0.16302 -0.171647 -1.16684 
-0.155806 -0.168258 -1.15984 
-0.16672 -0.16225 -1.17103 
-0.154072 -0.162979 -1.15757 
-0.147733 -0.132757 -1.15851 
-0.147968 -0.226447 -1.17543 
-0.147753 -0.224397 -1.17462 
-0.123618 -0.224881 -1.17686 
-0.125594 -0.221492 -1.18163 
-0.149463 -0.215451 -1.17128 
-0.137856 -0.215567 -1.17224 
-0.140665 -0.210681 -1.16938 
-0.13093 -0.209202 -1.1718 
0.044456 -0.228073 -1.18959 
0.036585 -0.227555 -1.17646 
0.082256 -0.217521 -1.18167 
0.084659 -0.21394 -1.18455 
0.013549 -0.223608 -1.13168 
0.008145 -0.221447 -1.12876 
0.083835 -0.207922 -1.18288 
0.080402 -0.204517 -1.17869 
0.00739 -0.21379 -1.12811 
0.07554 -0.20029 -1.17435 
0.080109 -0.198332 -1.17879 
0.020698 -0.206925 -1.13488 
0.031395 -0.202951 -1.14097 
0.012047 -0.204688 -1.13069 
0.040992 -0.197797 -1.14783 
0.019725 -0.20127 -1.13438 
0.078763 -0.18819 -1.17821 
0.048426 -0.192841 -1.15468 
0.073384 -0.18715 -1.17359 
0.066268 -0.18659 -1.16848 
0.05086 -0.186955 -1.1576 
0.091473 -0.223091 -1.2057 
0.087922 -0.224808 -1.1924 
0.090448 -0.221597 -1.19949 
0.09065 -0.215495 -1.19864 
0.091995 -0.21471 -1.20748 
0.0901 -0.210375 -1.21869 
0.09208 -0.209605 -1.20817 
0.09207 -0.20731 -1.2092 
0.09159 -0.2058 -1.20234 
0.091293 -0.20254 -1.21219 
0.09115 -0.19917 -1.21029 
0.090831 -0.195864 -1.20901 
0.09104 -0.19584 -1.20559 
0.089515 -0.197524 -1.193 
0.090475 -0.192005 -1.20394 
0.087399 -0.194324 -1.18835 
0.088121 -0.187453 -1.19095 
0.08885 -0.18473 -1.19662 
0.085524 -0.18527 -1.18615 
0.08633 -0.173 -1.20758 
0.035044 -0.230766 -1.17602 
0.089264 -0.209276 -1.22024 
0.086757 -0.184963 -1.21563 
0.005008 -0.215095 -1.12704 
-0.005875 -0.210105 -1.12399 
-0.0097 -0.20708 -1.1237 
-0.007 -0.20161 -1.12495 
-0.00533 -0.20002 -1.1256 
-0.002082 -0.194835 -1.1275 
-0.12331 -0.177433 -1.14525 
-0.083775 -0.192555 -1.12683 
-0.013515 -0.21236 -1.12285 
-0.072291 -0.200487 -1.12367 
-0.053685 -0.197145 -1.12269 
-0.05397 -0.194335 -1.12279 
0.082662 -0.221135 -1.23105 
0.087296 -0.215176 -1.22502 
0.08311 -0.172442 -1.21578 
-0.175689 -0.186883 -1.19923 
-0.174805 -0.176917 -1.19558 
-0.173988 -0.172727 -1.1896 
-0.172114 -0.167541 -1.19683 
-0.170815 -0.164146 -1.19742 
-0.169313 -0.160465 -1.1978 
-0.166231 -0.155799 -1.20063 
0.00898 -0.00979 -1.20157 
0.007007 -0.009123 -1.20089 
0.00987 -0.00989 -1.20119 
0.008406 -0.010172 -1.20116 
0.00917 -0.0106 -1.20126 
0.006853 -0.00926 -1.20145 
0.00695 -0.00965 -1.20206 
-0.060223 -0.025157 -1.17083 
-0.06204 -0.02674 -1.17446 
-0.062534 -0.027503 -1.17489 
0.030264 -0.10902 -1.09923 
0.027816 -0.107631 -1.09722 
0.02809 -0.10759 -1.09698 
0.030063 -0.108716 -1.09884 
0.03148 -0.10938 -1.09902 
0.030875 -0.10909 -1.09846 
0.030192 -0.109711 -1.0989 
0.02971 -0.10915 -1.09851 
0.029321 -0.108631 -1.09842 
0.02892 -0.10809 -1.09785 
-0.06176 -0.025882 -1.17498 
-0.070707 -0.026632 -1.17999 
-0.069164 -0.030975 -1.18486 
-0.06143 -0.02589 -1.1737 
-0.056135 -0.021576 -1.17749 
-0.05698 -0.02211 -1.17759 
-0.05962 -0.02803 -1.18131 
-0.062394 -0.031203 -1.18358 
-0.05635 -0.02155 -1.1783 
-0.058177 -0.023028 -1.17692 
-0.056142 -0.027274 -1.18418 
-0.059515 -0.02436 -1.17708 
-0.059634 -0.023607 -1.17511 
-0.061436 -0.025677 -1.17641 
-0.063848 -0.031891 -1.18479 
-0.06056 -0.025511 -1.17745 
-0.05901 -0.029095 -1.18315 
-0.067276 -0.032084 -1.18509 
-0.060196 -0.023986 -1.17352 
-0.060461 -0.030022 -1.18319 
-0.060013 -0.02773 -1.16927 
-0.056166 -0.021048 -1.17933 
-0.05705 -0.02291 -1.18066 
-0.05694 -0.027239 -1.18314 
-0.05708 -0.02224 -1.17982 
-0.055887 -0.021816 -1.17551 
-0.060538 -0.024635 -1.17298 
-0.05778 -0.02212 -1.17249 
-0.069544 -0.029575 -1.18215 
-0.071425 -0.02754 -1.18141 
-0.069435 -0.030568 -1.18341 
-0.067611 -0.030691 -1.18217 
-0.068437 -0.031121 -1.18331 
-0.064971 -0.029582 -1.18038 
-0.062164 -0.026209 -1.17596 
-0.068268 -0.028122 -1.17917 
-0.06247 -0.026575 -1.17688 
-0.060972 -0.026098 -1.17231 
-0.06095 -0.029076 -1.17144 
-0.06139 -0.028445 -1.18048 
-0.061085 -0.028137 -1.1722 
-0.05901 -0.02279 -1.17245 
-0.059782 -0.023737 -1.17171 
-0.057602 -0.022474 -1.17651 
-0.057463 -0.0226 -1.17802 
-0.05747 -0.02352 -1.17988 
-0.05676 -0.02124 -1.18108 
-0.059075 -0.027395 -1.18107 
-0.058492 -0.022378 -1.17201 
-0.057993 -0.028587 -1.18343 
-0.059084 -0.022887 -1.17363 
-0.055012 -0.021235 -1.17698 
-0.059362 -0.025804 -1.17909 
-0.056364 -0.021831 -1.17614 
-0.058334 -0.023528 -1.17775 
-0.058438 -0.024994 -1.17935 
-0.055431 -0.026119 -1.18447 
-0.057445 -0.025582 -1.18127 
-0.057034 -0.023936 -1.18097 
-0.05658 -0.02313 -1.18178 
-0.06771 -0.028539 -1.17969 
-0.069902 -0.02791 -1.18057 
-0.065088 -0.032085 -1.18429 
-0.066986 -0.028929 -1.17991 
-0.064893 -0.030973 -1.18215 
-0.061344 -0.025405 -1.17569 
-0.057769 -0.022183 -1.17411 
-0.056699 -0.025824 -1.18247 
-0.05807 -0.026226 -1.18101 
-0.068849 -0.028062 -1.17983 
-0.056753 -0.029067 -1.18552 
-0.057235 -0.029812 -1.18669 
-0.059289 -0.03048 -1.18496 
-0.066457 -0.028458 -1.17876 
-0.056953 -0.028872 -1.18487 
-0.058286 -0.027348 -1.18182 
-0.05763 -0.024498 -1.18021 
-0.057103 -0.022 -1.17396 
-0.05734 -0.027993 -1.18343 
-0.057884 -0.029789 -1.18499 
-0.055867 -0.027655 -1.18511 
-0.05654 -0.02052 -1.18144 
-0.05684 -0.02222 -1.18129 
-0.05771 -0.023256 -1.17891 
-0.056993 -0.022079 -1.17624 
-0.055187 -0.021098 -1.17772 
-0.060603 -0.025171 -1.17221 
-0.060544 -0.028691 -1.17067 
-0.060833 -0.026908 -1.17158 
-0.059323 -0.030001 -1.16859 
-0.059582 -0.029395 -1.16901 
-0.060201 -0.026204 -1.1697 
-0.062898 -0.028645 -1.17985 
-0.064024 -0.02771 -1.17693 
-0.063393 -0.027368 -1.17741 
-0.06397 -0.029297 -1.18026 
-0.063389 -0.03076 -1.18243 
-0.064719 -0.028088 -1.17785 
-0.065881 -0.028892 -1.17949 
-0.072361 -0.027134 -1.18178 
-0.061536 -0.026684 -1.1781 
-0.060235 -0.02857 -1.18147 
-0.07172 -0.02631 -1.1804 
-0.070207 -0.030354 -1.18406 
-0.068401 -0.028979 -1.18069 
-0.068327 -0.031504 -1.18437 
-0.062516 -0.031456 -1.18405 
-0.065098 -0.0317 -1.18327 
-0.067327 -0.031475 -1.18307 
-0.066258 -0.032019 -1.18414 
-0.066231 -0.0307 -1.1817 
-0.066318 -0.032348 -1.18544 
-0.071222 -0.028961 -1.18277 
-0.072464 -0.028134 -1.18326 
-0.072728 -0.027447 -1.18256 
-0.064095 -0.028431 -1.17892 
-0.062558 -0.027567 -1.17854 
-0.060455 -0.02988 -1.17096 
-0.061176 -0.030012 -1.17228 
-0.060022 -0.030926 -1.17154 
-0.060079 -0.030653 -1.1709 
-0.059778 -0.030442 -1.17004 
-0.059914 -0.026201 -1.16914 
-0.059606 -0.023435 -1.17227 
-0.05539 -0.020716 -1.179 
-0.0555 -0.01998 -1.1805 
-0.05622 -0.0204 -1.18084 
-0.056739 -0.0217 -1.1792 
-0.058165 -0.02389 -1.17865 
-0.060025 -0.026763 -1.17951 
-0.055602 -0.023564 -1.18339 
-0.055645 -0.025226 -1.18381 
-0.057926 -0.030146 -1.18569 
-0.058643 -0.029848 -1.18448 
-0.06246 -0.02993 -1.18179 
-0.073247 -0.04598 -1.15829 
-0.071302 -0.045605 -1.15396 
-0.073097 -0.046001 -1.15392 
-0.071706 -0.045825 -1.15478 
-0.072625 -0.045697 -1.15643 
-0.068274 -0.04437 -1.15509 
-0.069114 -0.044381 -1.15614 
-0.073739 -0.045229 -1.1568 
-0.070167 -0.045356 -1.15428 
-0.068393 -0.04416 -1.15614 
-0.070364 -0.045254 -1.1565 
-0.075379 -0.045798 -1.15444 
-0.074523 -0.045981 -1.15463 
-0.072373 -0.045772 -1.15723 
-0.073226 -0.046051 -1.15456 
-0.071939 -0.046379 -1.15934 
-0.07181 -0.045701 -1.15621 
-0.070665 -0.045527 -1.15769 
-0.072035 -0.04603 -1.15836 
-0.074255 -0.044762 -1.1579 
-0.074353 -0.045616 -1.15592 
-0.075658 -0.045392 -1.15624 
-0.07588 -0.04557 -1.15552 
-0.072742 -0.045802 -1.15561 
-0.069591 -0.045005 -1.15402 
-0.069559 -0.045097 -1.1548 
-0.070394 -0.045333 -1.15541 
-0.071394 -0.045654 -1.157 
-0.10013 -0.03075 -1.16952 
-0.097812 -0.031724 -1.17224 
-0.097889 -0.031426 -1.17146 
-0.099495 -0.031026 -1.17007 
-0.098246 -0.031224 -1.17064 
-0.09186 -0.03403 -1.16545 
-0.09035 -0.0334 -1.16374 
-0.094784 -0.036319 -1.16662 
-0.092729 -0.035322 -1.16504 
-0.091905 -0.034675 -1.16448 
-0.093596 -0.036083 -1.16579 
-0.088229 -0.02775 -1.15718 
-0.08998 -0.028161 -1.1553 
-0.088143 -0.027801 -1.15637 
-0.08623 -0.027732 -1.15727 
-0.084345 -0.028114 -1.15834 
-0.090033 -0.027301 -1.15713 
-0.085484 -0.027983 -1.15773 
-0.089735 -0.027732 -1.15644 
-0.08794 -0.027895 -1.15789 
-0.091399 -0.026531 -1.15674 
-0.085648 -0.028272 -1.15838 
-0.086642 -0.028317 -1.15832 
-0.08941 -0.02758 -1.15722 
-0.090466 -0.027313 -1.15666 
-0.090964 -0.027741 -1.15563 
-0.09062 -0.02814 -1.15497 
-0.08697 -0.02792 -1.15756 
-0.087129 -0.027843 -1.15692 
-0.081515 -0.029264 -1.15354 
-0.079729 -0.029827 -1.15362 
-0.080286 -0.029234 -1.15266 
-0.086742 -0.030675 -1.14805 
-0.079716 -0.030337 -1.15593 
-0.08262 -0.029044 -1.15435 
-0.080151 -0.030199 -1.15756 
-0.080848 -0.028881 -1.15711 
-0.082015 -0.028639 -1.15576 
-0.081419 -0.028965 -1.15156 
-0.086252 -0.03031 -1.14689 
-0.080464 -0.028832 -1.15118 
-0.08434 -0.030078 -1.14628 
-0.081568 -0.029228 -1.15444 
-0.079787 -0.030495 -1.15647 
-0.07946 -0.03053 -1.15484 
-0.08087 -0.02908 -1.15617 
-0.080597 -0.029566 -1.15438 
-0.081481 -0.028536 -1.15689 
-0.07982 -0.029983 -1.15467 
-0.085652 -0.030464 -1.14778 
-0.089035 -0.03082 -1.14736 
-0.084638 -0.030381 -1.14735 
-0.090319 -0.030737 -1.14665 
-0.083742 -0.03003 -1.14762 
-0.083718 -0.029314 -1.15219 
-0.082127 -0.029202 -1.14813 
-0.08296 -0.029539 -1.14888 
-0.080399 -0.029446 -1.15747 
-0.082595 -0.029139 -1.15041 
-0.081423 -0.028502 -1.15797 
-0.080833 -0.028994 -1.15813 
-0.079984 -0.029866 -1.15592 
-0.079804 -0.028932 -1.15154 
-0.079384 -0.029448 -1.15219 
-0.080402 -0.029804 -1.15827 
-0.09126 -0.03043 -1.14735 
-0.080884 -0.028707 -1.1499 
-0.047228 -0.037164 -1.17415 
-0.041169 -0.026259 -1.18435 
-0.042596 -0.02787 -1.18073 
-0.042526 -0.028764 -1.18023 
-0.044115 -0.031284 -1.17827 
-0.041166 0.001946 -1.19021 
-0.06536 0.016952 -1.13441 
-0.040796 0.00882 -1.18394 
-0.064344 -0.025969 -1.19558 
-0.062875 -0.027114 -1.19503 
-0.062367 -0.026147 -1.19463 
-0.05595 -0.02339 -1.19323 
-0.056398 -0.022426 -1.19351 
-0.058415 -0.021422 -1.19514 
-0.057211 -0.021949 -1.19444 
-0.055385 -0.023185 -1.19251 
-0.060184 -0.020958 -1.19599 
-0.05928 -0.020351 -1.19518 
-0.05888 -0.020652 -1.19522 
-0.060037 -0.01985 -1.19545 
-0.057245 -0.021063 -1.19386 
-0.05612 -0.021784 -1.19273 
-0.057912 -0.020342 -1.19375 
-0.055602 -0.021475 -1.19108 
-0.061758 -0.019631 -1.19592 
-0.06092 -0.020127 -1.19611 
-0.058798 -0.019033 -1.19331 
-0.056896 -0.020448 -1.19236 
-0.05642 -0.020356 -1.19122 
-0.062855 -0.018871 -1.19572 
-0.059768 -0.018766 -1.19398 
-0.05764 -0.019703 -1.19259 
-0.061236 -0.018547 -1.19474 
-0.056894 -0.019626 -1.19144 
-0.06496 -0.018155 -1.19523 
-0.061748 -0.017875 -1.19423 
-0.05741 -0.018893 -1.19148 
-0.055854 -0.019981 -1.19021 
-0.063073 -0.01697 -1.19364 
-0.060564 -0.017783 -1.19348 
-0.056807 -0.0186 -1.19047 
-0.061736 -0.017116 -1.1935 
-0.059407 -0.017857 -1.19261 
-0.060729 -0.016879 -1.19272 
-0.057917 -0.017041 -1.19064 
-0.061643 -0.016421 -1.19297 
-0.056766 -0.017541 -1.18945 
-0.055627 -0.017582 -1.18825 
-0.066274 -0.016348 -1.19293 
-0.06201 -0.01558 -1.19237 
-0.061166 -0.014996 -1.19147 
-0.057967 -0.016312 -1.18964 
-0.055824 -0.016948 -1.18788 
-0.058772 -0.016211 -1.19051 
-0.066097 -0.011392 -1.19408 
-0.054822 -0.009074 -1.18971 
-0.059777 -0.008649 -1.19219 
-0.055797 -0.008057 -1.19034 
-0.062781 -0.00394 -1.199 
-0.061692 -0.00353 -1.19783 
-0.060979 -0.002911 -1.19719 
-0.06011 -0.00348 -1.19692 
-0.050033 -0.009862 -1.18361 
-0.063456 -0.002309 -1.19865 
-0.06149 -0.00244 -1.19725 
-0.05616 -0.002965 -1.19511 
-0.062211 -0.002762 -1.19771 
-0.061887 -0.002139 -1.19717 
-0.057271 -0.00286 -1.19578 
-0.064282 -0.000678 -1.1988 
-0.056195 -0.002367 -1.19517 
-0.065171 -0.001215 -1.2001 
-0.062789 -0.001349 -1.19761 
-0.054777 -0.002278 -1.19413 
-0.054183 -0.002248 -1.19325 
-0.063669 -0.000883 -1.19827 
-0.055583 -0.001257 -1.19445 
-0.054692 -0.001526 -1.19401 
-0.065674 0.000263 -1.2002 
-0.066043 0.001208 -1.20044 
-0.063765 -6.9e-05 -1.19821 
-0.057027 -0.001205 -1.19509 
-0.05396 -0.00093 -1.19299 
-0.053592 -0.002232 -1.19248 
-0.066474 0.001483 -1.20063 
-0.053778 -0.001372 -1.19279 
-0.05253 -0.00193 -1.19126 
-0.064611 0.000641 -1.19897 
-0.058784 0.001487 -1.19865 
-0.05633 0 -1.19378 
-0.05214 -0.00227 -1.19067 
-0.084468 -0.010835 -1.18356 
-0.064895 0.001759 -1.19914 
-0.064124 0.001566 -1.19865 
-0.059612 0.002359 -1.19893 
-0.056901 -0.000235 -1.1944 
-0.054826 -7.6e-05 -1.19334 
-0.053535 -0.001614 -1.19229 
-0.052376 -0.001355 -1.19106 
-0.05181 -0.00175 -1.18997 
-0.051648 -0.002083 -1.18943 
-0.060452 0.002983 -1.19899 
-0.058144 0.002522 -1.19842 
-0.05667 0.00156 -1.19678 
-0.052966 -0.000259 -1.19172 
-0.065988 0.002739 -1.20015 
-0.059502 0.003325 -1.19875 
-0.057053 0.00242 -1.19756 
-0.05659 0.00156 -1.1959 
-0.05418 -1e-05 -1.19272 
-0.052538 -0.000818 -1.19115 
-0.051608 -0.000672 -1.19029 
-0.056445 0.002269 -1.19608 
-0.056698 0.000353 -1.19377 
-0.05537 0.000113 -1.19349 
-0.05108 -0.001174 -1.18928 
-0.058878 0.003458 -1.19834 
-0.057345 0.003164 -1.1975 
-0.056692 0.001366 -1.19432 
-0.0561 0.001144 -1.19249 
-0.05077 -0.001659 -1.18858 
-0.04763 -0.00175 -1.18594 
-0.046865 -0.001109 -1.18569 
-0.06484 0.00378 -1.19891 
-0.053415 0.000626 -1.19175 
-0.052421 0.00041 -1.19117 
-0.050245 0.000255 -1.18948 
-0.049603 -0.001486 -1.18717 
-0.0475 -0.000787 -1.18582 
-0.063881 0.002876 -1.19848 
-0.056656 0.002945 -1.19671 
-0.056452 0.001301 -1.19259 
-0.05416 0.00114 -1.19184 
-0.049741 7.7e-05 -1.18859 
-0.065573 0.003815 -1.19969 
-0.064418 0.003159 -1.19866 
-0.057365 0.004052 -1.19642 
-0.056649 0.002908 -1.19596 
-0.057111 0.002777 -1.19404 
-0.056916 0.002135 -1.19328 
-0.053108 0.001211 -1.19121 
-0.05156 0.000674 -1.19063 
-0.050776 0.000488 -1.19 
-0.049556 0.000462 -1.18853 
-0.05928 0.00419 -1.19813 
-0.056704 0.001347 -1.19313 
-0.050335 0.001344 -1.18973 
-0.048534 -0.00058 -1.18644 
-0.048238 -0.001011 -1.18623 
-0.066059 0.003876 -1.20009 
-0.063716 0.004617 -1.19814 
-0.058829 0.004253 -1.19759 
-0.054079 0.002054 -1.19091 
-0.05274 0.00193 -1.19069 
-0.052126 0.001533 -1.19078 
-0.049712 0.001316 -1.18875 
-0.048662 0.000974 -1.18681 
-0.049262 -0.000392 -1.18727 
-0.047659 0.000721 -1.18566 
-0.05716 0.003883 -1.19543 
-0.057347 0.003089 -1.19295 
-0.05681 0.00254 -1.19197 
-0.054992 0.001413 -1.19214 
-0.051755 0.002656 -1.19039 
-0.04692 0.00071 -1.18535 
-0.066976 0.006011 -1.20028 
-0.060081 0.005021 -1.19821 
-0.058772 0.004979 -1.19646 
-0.057454 0.004411 -1.19449 
-0.057435 0.003716 -1.19386 
-0.051036 0.002644 -1.19027 
-0.05075 0.001757 -1.19021 
-0.064653 0.00607 -1.19884 
-0.064163 0.004847 -1.19833 
-0.063261 0.005736 -1.19792 
-0.059716 0.005428 -1.19763 
-0.059281 0.00548 -1.19686 
-0.057661 0.004623 -1.19511 
-0.057449 0.003711 -1.19279 
-0.056338 0.002323 -1.19153 
-0.050121 0.002931 -1.18979 
-0.049472 0.002473 -1.18911 
-0.04903 0.00241 -1.18809 
-0.048771 0.001799 -1.18715 
-0.06395 0.00624 -1.19823 
-0.057549 0.004834 -1.19399 
-0.055078 0.002856 -1.19063 
-0.050746 0.004113 -1.19011 
-0.065489 0.006275 -1.19963 
-0.06234 0.00661 -1.19744 
-0.061238 0.006168 -1.19747 
-0.060712 0.006556 -1.19702 
-0.058482 0.005195 -1.19544 
-0.057382 0.004724 -1.19346 
-0.056694 0.003399 -1.191 
-0.055803 0.002666 -1.19112 
-0.049891 0.003771 -1.18946 
-0.057359 0.004233 -1.1917 
-0.054517 0.003582 -1.18974 
-0.048588 0.002762 -1.18666 
-0.048143 0.002128 -1.18597 
-0.06309 0.00683 -1.19764 
-0.061685 0.007279 -1.19689 
-0.05762 0.00473 -1.19203 
-0.057079 0.003429 -1.19163 
-0.05673 0.00421 -1.19066 
-0.047819 0.001454 -1.18571 
-0.065929 0.00716 -1.19968 
-0.06456 0.00785 -1.1989 
-0.059461 0.006107 -1.19645 
-0.058607 0.005643 -1.19447 
-0.055693 0.003774 -1.19021 
-0.055133 0.004349 -1.18967 
-0.050032 0.004499 -1.18926 
-0.04919 0.003159 -1.18824 
-0.048454 0.003453 -1.18599 
-0.064718 0.008578 -1.19886 
-0.060543 0.007052 -1.19637 
-0.058175 0.005318 -1.19323 
-0.058183 0.005486 -1.19188 
-0.0512 0.005048 -1.19004 
-0.047832 0.003144 -1.18532 
-0.047099 0.002118 -1.18505 
-0.063568 0.007442 -1.19789 
-0.060449 0.007714 -1.19566 
-0.059145 0.006768 -1.19473 
-0.057598 0.005216 -1.19095 
-0.05715 0.0049 -1.19066 
-0.049809 0.004564 -1.18844 
-0.049621 0.004651 -1.18729 
-0.05998 0.00782 -1.19482 
-0.050702 0.005364 -1.1895 
-0.050566 0.005692 -1.18884 
-0.062002 0.008492 -1.19657 
-0.061162 0.008069 -1.19615 
-0.059372 0.007756 -1.19344 
-0.058741 0.00673 -1.19364 
-0.056924 0.005593 -1.19004 
-0.056121 0.005117 -1.18981 
-0.051205 0.005988 -1.1898 
-0.047087 0.004326 -1.18433 
-0.063954 0.008918 -1.19847 
-0.063033 0.008964 -1.19794 
-0.061028 0.008867 -1.19596 
-0.060503 0.008343 -1.19541 
-0.058594 0.006574 -1.19217 
-0.050258 0.005576 -1.18718 
-0.04862 0.00441 -1.18566 
-0.047859 0.004288 -1.18489 
-0.058938 0.007592 -1.19224 
-0.057723 0.006073 -1.19049 
-0.05738 0.006543 -1.19012 
-0.056599 0.006122 -1.18979 
-0.049392 0.004874 -1.18637 
