ply
format ascii 1.0
comment VCGLIB generated
element vertex 1649
property float x
property float y
property float z
element face 0
property list uchar int vertex_indices
end_header
-0.085709 -0.026568 -1.14383 
-0.090492 -0.029935 -1.15912 
-0.087345 -0.029047 -1.15944 
-0.09141 -0.026982 -1.15855 
-0.092191 -0.027631 -1.15823 
-0.068381 -0.031245 -1.14721 
-0.069634 -0.030182 -1.14715 
-0.070977 -0.045358 -1.15344 
-0.068551 -0.043733 -1.1534 
-0.070371 -0.043745 -1.15262 
-0.071198 -0.043161 -1.15227 
-0.069871 -0.043054 -1.15221 
-0.072353 -0.042739 -1.15196 
-0.070222 -0.041745 -1.15005 
-0.071594 -0.041555 -1.14976 
-0.069619 -0.040604 -1.14961 
-0.070627 -0.040405 -1.14959 
-0.070914 -0.041138 -1.14961 
-0.070687 -0.039687 -1.14971 
-0.068143 -0.039635 -1.14982 
-0.066611 -0.039696 -1.15085 
-0.067593 -0.038876 -1.15013 
-0.068976 -0.039624 -1.14953 
-0.065991 -0.03897 -1.15064 
-0.069714 -0.039387 -1.14944 
-0.06986 -0.0381 -1.14925 
-0.065975 -0.03797 -1.14925 
-0.066971 -0.038539 -1.15 
-0.068702 -0.037621 -1.14908 
-0.069032 -0.038195 -1.14926 
-0.069762 -0.037435 -1.14907 
-0.066687 -0.037319 -1.14873 
-0.068467 -0.036984 -1.14842 
-0.069332 -0.037122 -1.14872 
-0.06774 -0.036391 -1.14816 
-0.067657 -0.034347 -1.1478 
-0.095455 -0.030494 -1.15796 
-0.094975 -0.029952 -1.15775 
-0.097253 -0.02887 -1.15751 
-0.068552 -0.031689 -1.14759 
-0.068467 -0.032291 -1.14777 
-0.070002 -0.030939 -1.14773 
-0.069574 -0.028213 -1.14676 
-0.072218 -0.028359 -1.14752 
-0.074963 -0.027361 -1.14859 
-0.074956 -0.02666 -1.14842 
-0.078445 -0.026811 -1.14883 
-0.075712 -0.02566 -1.14852 
-0.076256 -0.026564 -1.14877 
-0.077301 -0.026552 -1.14884 
-0.091088 -0.033688 -1.16367 
-0.05494 -0.023357 -1.18505 
-0.055204 -0.022759 -1.18494 
-0.055658 -0.022254 -1.18393 
-0.055876 -0.022705 -1.18329 
-0.055305 -0.021982 -1.18484 
-0.05641 -0.021616 -1.18246 
-0.056182 -0.019593 -1.18366 
-0.05627 -0.02251 -1.18267 
-0.059677 -0.036852 -1.14615 
-0.06008 -0.036376 -1.14526 
-0.061821 -0.027347 -1.14098 
-0.0622 -0.02681 -1.13889 
-0.062305 -0.026512 -1.13832 
-0.06215 -0.02569 -1.14002 
-0.062484 -0.025628 -1.13869 
-0.062496 -0.024575 -1.14084 
-0.063169 -0.024973 -1.13748 
-0.063 -0.02485 -1.139 
-0.063374 -0.024008 -1.14011 
-0.064312 -0.024037 -1.138 
-0.06349 -0.023299 -1.14069 
-0.065249 -0.022904 -1.13777 
-0.064407 -0.023803 -1.13873 
-0.064415 -0.024042 -1.13685 
-0.064977 -0.022853 -1.13901 
-0.064064 -0.0233 -1.14012 
-0.064778 -0.022734 -1.13242 
-0.065313 -0.022835 -1.13707 
-0.065572 -0.022271 -1.13795 
-0.065811 -0.021187 -1.13891 
-0.065081 -0.021517 -1.14 
-0.06568 -0.022442 -1.13637 
-0.066226 -0.021598 -1.13658 
-0.06606 -0.02182 -1.13473 
-0.066212 -0.021071 -1.13787 
-0.065715 -0.020184 -1.1396 
-0.06692 -0.019786 -1.13668 
-0.064644 -0.019873 -1.14126 
-0.06652 -0.019656 -1.13806 
-0.059447 -0.038374 -1.15036 
-0.059329 -0.038207 -1.14918 
-0.059765 -0.037542 -1.14923 
-0.059577 -0.037191 -1.1478 
-0.06021 -0.037484 -1.14984 
-0.061318 -0.036629 -1.14931 
-0.060303 -0.036241 -1.14811 
-0.06387 -0.036479 -1.14892 
-0.061658 -0.035798 -1.14845 
-0.062543 -0.036199 -1.14893 
-0.063373 -0.03574 -1.1487 
-0.060452 -0.035524 -1.14675 
-0.06076 -0.036068 -1.14846 
-0.061035 -0.035554 -1.14787 
-0.060143 -0.035917 -1.14639 
-0.064458 -0.034199 -1.148 
-0.061294 -0.033861 -1.14535 
-0.062083 -0.034648 -1.14751 
-0.064289 -0.033757 -1.14744 
-0.061584 -0.034274 -1.14648 
-0.063575 -0.033196 -1.14641 
-0.061866 -0.033107 -1.14521 
-0.062766 -0.032892 -1.1458 
-0.065338 -0.032804 -1.14687 
-0.065612 -0.031974 -1.14604 
-0.062693 -0.03232 -1.14536 
-0.064594 -0.031939 -1.14575 
-0.067095 -0.031377 -1.14659 
-0.067035 -0.030781 -1.14622 
-0.064679 -0.029617 -1.14478 
-0.063572 -0.029198 -1.14407 
-0.06269 -0.02872 -1.14324 
-0.063253 -0.028577 -1.14369 
-0.067494 -0.026289 -1.14583 
-0.06245 -0.02794 -1.14288 
-0.067676 -0.026925 -1.14606 
-0.065522 -0.027542 -1.14477 
-0.064797 -0.026537 -1.14411 
-0.06218 -0.02679 -1.14248 
-0.061933 -0.02669 -1.14196 
-0.061964 -0.025513 -1.14155 
-0.062188 -0.025495 -1.14227 
-0.062589 -0.025778 -1.14287 
-0.063138 -0.024567 -1.14302 
-0.059003 -0.041669 -1.15396 
-0.059181 -0.041682 -1.15494 
-0.059019 -0.041009 -1.15427 
-0.058465 -0.040977 -1.15177 
-0.058527 -0.040592 -1.15273 
-0.059002 -0.040061 -1.15348 
-0.058606 -0.040193 -1.15135 
-0.058794 -0.039701 -1.15249 
-0.058666 -0.040694 -1.14996 
-0.059176 -0.039088 -1.15268 
-0.059593 -0.038946 -1.15329 
-0.059008 -0.03924 -1.15087 
-0.059024 -0.038954 -1.14922 
-0.059207 -0.038068 -1.14752 
-0.063004 -0.025089 -1.13628 
-0.06288 -0.024963 -1.13434 
-0.064193 -0.024082 -1.13573 
-0.064366 -0.023788 -1.13472 
-0.064734 -0.022752 -1.13304 
-0.066119 -0.021391 -1.13381 
-0.066815 -0.020437 -1.13425 
-0.066686 -0.020694 -1.13588 
-0.062914 -0.037944 -1.15032 
-0.06512 -0.037237 -1.14889 
-0.064986 -0.034887 -1.14825 
-0.066485 -0.033793 -1.14789 
-0.065179 -0.034228 -1.14805 
-0.065577 -0.030986 -1.1456 
-0.065257 -0.030155 -1.14521 
-0.06009 -0.039685 -1.1542 
-0.059282 -0.039158 -1.15344 
-0.064561 -0.042951 -1.15743 
-0.065107 -0.038576 -1.14993 
-0.06446 -0.037799 -1.14946 
-0.065635 -0.036633 -1.14856 
-0.066831 -0.033032 -1.1478 
-0.066221 -0.032896 -1.14754 
-0.092164 -0.011164 -1.1617 
-0.093702 -0.010991 -1.16206 
-0.095101 -0.011981 -1.16161 
-0.097794 -0.012378 -1.1619 
-0.093078 -0.012148 -1.16125 
-0.094566 -0.01322 -1.16094 
-0.090985 -0.012412 -1.16074 
-0.091676 -0.01291 -1.16057 
-0.092193 -0.013698 -1.16012 
-0.094288 -0.014706 -1.16037 
-0.080993 -0.018881 -1.14433 
-0.079489 -0.02098 -1.14443 
-0.080277 -0.020821 -1.14371 
-0.057569 0.012199 -1.1924 
-0.057626 0.012276 -1.19152 
-0.059696 0.013609 -1.19044 
-0.057079 0.012174 -1.19015 
-0.060322 0.013748 -1.18886 
-0.056054 0.011559 -1.19113 
-0.055722 0.011318 -1.18979 
-0.061009 0.013774 -1.18888 
-0.059057 0.013367 -1.1883 
-0.058357 0.01313 -1.18901 
-0.060019 0.013294 -1.18746 
-0.061086 0.013215 -1.18752 
-0.059057 0.013209 -1.18735 
-0.061576 0.013059 -1.18716 
-0.060505 0.01307 -1.18653 
-0.058025 0.012813 -1.18671 
-0.056713 0.012193 -1.1869 
-0.059277 0.013035 -1.1864 
-0.06345 0.013089 -1.18671 
-0.062168 0.013237 -1.18576 
-0.061968 0.013398 -1.18628 
-0.060543 0.013042 -1.18541 
-0.054602 0.010713 -1.18614 
-0.058436 0.012765 -1.18544 
-0.055492 0.011236 -1.18531 
-0.059076 0.012826 -1.18498 
-0.060418 0.012587 -1.18429 
-0.058995 0.011996 -1.18342 
-0.057426 0.012096 -1.18456 
-0.061809 0.012217 -1.18392 
-0.058 0.012069 -1.1838 
-0.053908 0.009957 -1.18427 
-0.05282 0.009267 -1.18438 
-0.060012 0.011555 -1.18272 
-0.057782 0.011097 -1.18231 
-0.052168 0.008724 -1.18351 
-0.063655 0.011351 -1.18302 
-0.062088 0.011384 -1.18255 
-0.061337 0.011464 -1.18256 
-0.063441 0.011154 -1.182 
-0.056979 0.010739 -1.18209 
-0.065107 0.011142 -1.18159 
-0.063048 0.011202 -1.18129 
-0.06214 0.0111 -1.1816 
-0.061012 0.01102 -1.18146 
-0.058909 0.010918 -1.18172 
-0.06524 0.01147 -1.18044 
-0.055818 0.010754 -1.18324 
-0.064759 0.01165 -1.18049 
-0.063369 0.011486 -1.18056 
-0.061447 0.01105 -1.18106 
-0.059818 0.010773 -1.18123 
-0.05867 0.01043 -1.18067 
-0.053355 0.009162 -1.18266 
-0.060363 0.010953 -1.18044 
-0.0563 0.010005 -1.18124 
-0.065918 0.011298 -1.18031 
-0.061875 0.011467 -1.18011 
-0.057597 0.009952 -1.17986 
-0.057605 0.010367 -1.18107 
-0.054172 0.009235 -1.18175 
-0.063377 0.011523 -1.17977 
-0.060812 0.011433 -1.17984 
-0.055272 0.009486 -1.18086 
-0.06065 0.011374 -1.17942 
-0.059147 0.010741 -1.17923 
-0.058912 0.01048 -1.17998 
-0.052207 0.008079 -1.18121 
-0.062049 0.01105 -1.17863 
-0.058226 0.010276 -1.17946 
-0.053862 0.00837 -1.17897 
-0.060758 0.010905 -1.17844 
-0.057728 0.009992 -1.1787 
-0.057027 0.00965 -1.17975 
-0.054985 0.008875 -1.17935 
-0.051934 0.007767 -1.18017 
-0.066437 0.010527 -1.17901 
-0.059819 0.010905 -1.17876 
-0.057801 0.009657 -1.17777 
-0.065466 0.010459 -1.17844 
-0.064688 0.01101 -1.17915 
-0.052912 0.008181 -1.17987 
-0.051474 0.007665 -1.17927 
-0.050827 0.007672 -1.18056 
-0.066534 0.010282 -1.17838 
-0.049844 0.007639 -1.17973 
-0.062939 0.010208 -1.17729 
-0.052402 0.007835 -1.17861 
-0.050603 0.007638 -1.17898 
-0.067038 0.010073 -1.17745 
-0.064458 0.009904 -1.17709 
-0.060568 0.010213 -1.17736 
-0.055954 0.008931 -1.17802 
-0.05536 0.008703 -1.17828 
-0.068249 0.010092 -1.1774 
-0.061613 0.0101 -1.17701 
-0.047476 0.008712 -1.17741 
-0.065974 0.010101 -1.17746 
-0.06023 0.00967 -1.17645 
-0.051783 0.007734 -1.17743 
-0.050498 0.007729 -1.17798 
-0.065736 0.010049 -1.17654 
-0.065515 0.009813 -1.17557 
-0.064381 0.010021 -1.17602 
-0.054597 0.008224 -1.17717 
-0.048325 0.008423 -1.17729 
-0.067154 0.009838 -1.17632 
-0.06286 0.009891 -1.17641 
-0.059387 0.009431 -1.17639 
-0.06804 0.010344 -1.17557 
-0.056155 0.008632 -1.17677 
-0.052572 0.007792 -1.17748 
-0.049703 0.007995 -1.17698 
-0.050021 0.008088 -1.17605 
-0.063371 0.009828 -1.17466 
-0.060961 0.009593 -1.17576 
-0.060406 0.009398 -1.1751 
-0.04905 0.00839 -1.17552 
-0.066737 0.009825 -1.17552 
-0.061998 0.009708 -1.1756 
-0.059547 0.009236 -1.17551 
-0.057809 0.008594 -1.17532 
-0.058151 0.008979 -1.17614 
-0.051575 0.007832 -1.17625 
-0.088337 0.010272 -1.17478 
-0.065349 0.00956 -1.17418 
-0.062438 0.009842 -1.17485 
-0.053842 0.0079 -1.17645 
-0.052589 0.007727 -1.17566 
-0.05142 0.00786 -1.17524 
-0.050111 0.008145 -1.17437 
-0.068482 0.010625 -1.17508 
-0.062009 0.009542 -1.17352 
-0.066811 0.00979 -1.17449 
-0.067346 0.009896 -1.17444 
-0.061005 0.009507 -1.17419 
-0.056568 0.008203 -1.1753 
-0.053937 0.007512 -1.17492 
-0.063834 0.009405 -1.17349 
-0.061139 0.009452 -1.17364 
-0.059161 0.008937 -1.17462 
-0.055137 0.007695 -1.17485 
-0.067489 0.009866 -1.17352 
-0.066101 0.009164 -1.17277 
-0.053396 0.007429 -1.17454 
-0.05288 0.00746 -1.17377 
-0.049285 0.00844 -1.17386 
-0.065562 0.009217 -1.1732 
-0.059616 0.008957 -1.17391 
-0.054583 0.007322 -1.1736 
-0.066641 0.00945 -1.17241 
-0.059439 0.00832 -1.17223 
-0.055922 0.007552 -1.17346 
-0.051002 0.007881 -1.17315 
-0.06143 0.00886 -1.17207 
-0.057229 0.007859 -1.17296 
-0.05389 0.007188 -1.17258 
-0.062322 0.008993 -1.17231 
-0.050356 0.008087 -1.17243 
-0.066264 0.009318 -1.17147 
-0.06331 0.00873 -1.17202 
-0.057429 0.007707 -1.1722 
-0.055102 0.00722 -1.17237 
-0.052866 0.007256 -1.17177 
-0.052233 0.007382 -1.17221 
-0.056339 0.007359 -1.17164 
-0.065584 0.008807 -1.1715 
-0.064617 0.00837 -1.17115 
-0.061129 0.008025 -1.17056 
-0.05903 0.007758 -1.1707 
-0.054116 0.007101 -1.17179 
-0.066061 0.009663 -1.16982 
-0.063725 0.00834 -1.1713 
-0.059941 0.008025 -1.17076 
-0.0617 0.007759 -1.17016 
-0.057936 0.007385 -1.17022 
-0.054978 0.00716 -1.17126 
-0.063294 0.007832 -1.1701 
-0.05611 0.007218 -1.17066 
-0.054964 0.007254 -1.17014 
-0.053825 0.0073 -1.17065 
-0.052605 0.007575 -1.16987 
-0.051557 0.007648 -1.17127 
-0.065473 0.009539 -1.16878 
-0.064895 0.008505 -1.16989 
-0.064236 0.008112 -1.16977 
-0.062723 0.007558 -1.16913 
-0.060417 0.007508 -1.1696 
-0.06213 0.007618 -1.16991 
-0.059105 0.00742 -1.16955 
-0.063769 0.008033 -1.16897 
-0.057119 0.007216 -1.16978 
-0.055933 0.007184 -1.16921 
-0.058489 0.007124 -1.16861 
-0.061866 0.007366 -1.16906 
-0.059998 0.007171 -1.16869 
-0.054529 0.007383 -1.16842 
-0.063745 0.00864 -1.1676 
-0.061588 0.007304 -1.16775 
-0.060468 0.00701 -1.16773 
-0.057432 0.006992 -1.16823 
-0.052985 0.00775 -1.16803 
-0.061382 0.007379 -1.16699 
-0.058888 0.006933 -1.16747 
-0.05801 0.00699 -1.16776 
-0.059581 0.007098 -1.16692 
-0.055908 0.007079 -1.16771 
-0.055519 0.007271 -1.16684 
-0.054083 0.007538 -1.16733 
-0.063479 0.008651 -1.16688 
-0.062125 0.00805 -1.16634 
-0.058129 0.007005 -1.16652 
-0.062838 0.008359 -1.16568 
-0.060948 0.007661 -1.16591 
-0.059315 0.007506 -1.16574 
-0.059994 0.007821 -1.16446 
-0.061931 0.008033 -1.16497 
-0.061027 0.007848 -1.16483 
-0.093208 0.001902 -1.16758 
-0.093367 0.000446 -1.16672 
-0.072482 -0.000275 -1.15238 
-0.073899 -0.000756 -1.15272 
-0.071641 -0.000375 -1.15182 
-0.07439 -0.00121 -1.15202 
-0.073697 -0.001172 -1.15133 
-0.070882 -0.000892 -1.15092 
-0.072674 -0.001047 -1.1511 
-0.069098 -0.000736 -1.15033 
-0.072601 -0.001962 -1.14961 
-0.068349 -0.001456 -1.14903 
-0.070176 -0.001545 -1.14956 
-0.072308 -0.002131 -1.1491 
-0.073217 -0.002488 -1.14856 
-0.0695 -0.00217 -1.14864 
-0.068024 -0.002028 -1.14832 
-0.071458 -0.002283 -1.14868 
-0.070016 -0.002711 -1.14825 
-0.074514 -0.002765 -1.14833 
-0.071274 -0.003177 -1.14798 
-0.06872 -0.00306 -1.14783 
-0.073871 -0.002957 -1.14786 
-0.073009 -0.003386 -1.1476 
-0.06958 -0.003497 -1.14774 
-0.074051 -0.003462 -1.14728 
-0.071063 -0.003873 -1.14761 
-0.075329 -0.003716 -1.14686 
-0.074077 -0.003992 -1.147 
-0.072466 -0.004388 -1.14726 
-0.076347 -0.003749 -1.14667 
-0.077618 -0.004332 -1.14588 
-0.075814 -0.004213 -1.14627 
-0.073447 -0.005818 -1.14667 
-0.07802 -0.00506 -1.14514 
-0.076877 -0.004635 -1.14562 
-0.080298 -0.005029 -1.14534 
-0.07931 -0.00522 -1.14497 
-0.083312 -0.00657 -1.14445 
-0.081709 -0.00654 -1.14406 
-0.079735 -0.005873 -1.14433 
-0.085397 -0.007234 -1.14447 
-0.081629 -0.005592 -1.14502 
-0.07826 -0.005633 -1.14468 
-0.086709 -0.007747 -1.14442 
-0.079276 -0.006638 -1.1439 
-0.084573 -0.007797 -1.1437 
-0.082689 -0.00708 -1.1438 
-0.080961 -0.006976 -1.14365 
-0.087096 -0.008408 -1.14388 
-0.085462 -0.008279 -1.14344 
-0.082664 -0.007806 -1.14342 
-0.075008 0.018045 -1.17344 
-0.074644 0.018136 -1.17239 
-0.074019 0.017833 -1.174 
-0.077533 0.019309 -1.16999 
-0.076442 0.018666 -1.17117 
-0.074849 0.018017 -1.16943 
-0.072024 0.017078 -1.16974 
-0.071117 0.01601 -1.1696 
-0.077812 0.018988 -1.16841 
-0.07688 0.017896 -1.16788 
-0.075918 0.01778 -1.16873 
-0.076167 0.017366 -1.16744 
-0.074644 0.017033 -1.16661 
-0.072781 0.017309 -1.16808 
-0.077904 0.018287 -1.16613 
-0.076941 0.017309 -1.16624 
-0.072073 0.016067 -1.16633 
-0.076336 0.016858 -1.16586 
-0.070956 0.014437 -1.16537 
-0.07677 0.016636 -1.16495 
-0.071911 0.015002 -1.16453 
-0.076193 0.015931 -1.16377 
-0.075499 0.015606 -1.16393 
-0.07055 0.013678 -1.16447 
-0.075543 0.015097 -1.16281 
-0.071086 0.014038 -1.16397 
-0.06945 0.012642 -1.16411 
-0.069886 0.012909 -1.16326 
-0.074204 0.014407 -1.16284 
-0.070044 0.012592 -1.16245 
-0.07536 0.014453 -1.16177 
-0.074561 0.014087 -1.16209 
-0.068545 0.011315 -1.1622 
-0.074134 0.012764 -1.16052 
-0.073455 0.01164 -1.15934 
-0.072472 0.010652 -1.15861 
-0.069223 0.009698 -1.15937 
-0.073168 0.010798 -1.15776 
-0.070854 0.010208 -1.15887 
-0.068949 0.008846 -1.15831 
-0.071827 0.009702 -1.15699 
-0.071348 0.009803 -1.15785 
-0.07245 0.010078 -1.15672 
-0.06803 0.007729 -1.15712 
-0.066903 0.007773 -1.15834 
-0.069271 0.008487 -1.15735 
-0.070137 0.008663 -1.15661 
-0.06728 0.00751 -1.15711 
-0.068463 0.007574 -1.15555 
-0.07337 0.00902 -1.15519 
-0.071613 0.008091 -1.15439 
-0.069355 0.008028 -1.15547 
-0.069435 0.007746 -1.15442 
-0.06881 0.00742 -1.15473 
-0.068569 0.006727 -1.15393 
-0.072179 -0.046858 -1.16032 
-0.070924 -0.045857 -1.15874 
-0.07243 -0.047099 -1.16141 
-0.09098 -0.03011 -1.14794 
-0.090431 -0.030708 -1.1474 
-0.071989 -0.046917 -1.16299 
-0.071584 -0.046915 -1.16195 
-0.070538 -0.046057 -1.15983 
-0.090154 -0.029949 -1.14851 
-0.088339 -0.030776 -1.14765 
-0.069804 -0.045711 -1.16002 
-0.070706 -0.046519 -1.16149 
-0.069698 -0.045383 -1.15887 
-0.088766 -0.030654 -1.14793 
-0.071301 -0.046769 -1.16291 
-0.091064 -0.029302 -1.14915 
-0.070641 -0.046536 -1.16411 
-0.070464 -0.046347 -1.16277 
-0.08899 -0.02985 -1.14906 
-0.069976 -0.045951 -1.16273 
-0.069687 -0.045768 -1.16136 
-0.068771 -0.044823 -1.16021 
-0.068045 -0.044367 -1.1597 
-0.067191 -0.044442 -1.15907 
-0.070636 -0.046305 -1.16502 
-0.069063 -0.044889 -1.16276 
-0.068545 -0.044685 -1.16167 
-0.068202 -0.044592 -1.1608 
-0.103438 -0.031557 -1.16347 
-0.085438 -0.030059 -1.15023 
-0.070885 -0.046 -1.16635 
-0.069865 -0.04572 -1.16411 
-0.067137 -0.044348 -1.16005 
-0.064695 -0.043314 -1.15978 
-0.087943 -0.029879 -1.15104 
-0.069185 -0.044888 -1.16363 
-0.067682 -0.044273 -1.16105 
-0.084445 -0.030155 -1.14933 
-0.06814 -0.04402 -1.16277 
-0.089217 -0.029459 -1.15218 
-0.086413 -0.030018 -1.15049 
-0.08508 -0.029437 -1.15217 
-0.070202 -0.045589 -1.16628 
-0.063749 -0.042232 -1.15793 
-0.084282 -0.029562 -1.15102 
-0.065384 -0.043414 -1.1604 
-0.087804 -0.029259 -1.1526 
-0.083448 -0.029391 -1.15058 
-0.069898 -0.045356 -1.16699 
-0.069682 -0.045161 -1.16604 
-0.067808 -0.043485 -1.16315 
-0.067182 -0.043704 -1.16196 
-0.065038 -0.042934 -1.16078 
-0.064111 -0.042813 -1.15896 
-0.063354 -0.041813 -1.1569 
-0.062177 -0.041181 -1.15706 
-0.087404 -0.029005 -1.15341 
-0.086577 -0.029391 -1.15248 
-0.066266 -0.043526 -1.16106 
-0.063474 -0.042385 -1.15956 
-0.095052 -0.035606 -1.1686 
-0.065941 -0.042296 -1.16361 
-0.065332 -0.042842 -1.16211 
-0.095381 -0.035131 -1.16921 
-0.093843 -0.035307 -1.16828 
-0.086184 -0.029032 -1.15377 
-0.06139 -0.04124 -1.15782 
-0.094479 -0.035182 -1.1689 
-0.067622 -0.042984 -1.16407 
-0.064919 -0.042738 -1.16144 
-0.062309 -0.041212 -1.15856 
-0.061829 -0.040773 -1.15895 
-0.061024 -0.041277 -1.15868 
-0.086532 -0.028887 -1.15453 
-0.085211 -0.028553 -1.15531 
-0.068069 -0.043289 -1.16451 
-0.064996 -0.041702 -1.1637 
-0.093446 -0.034566 -1.16863 
-0.084323 -0.028817 -1.15462 
-0.064286 -0.042219 -1.16283 
-0.063801 -0.042003 -1.16195 
-0.063386 -0.041701 -1.1605 
-0.092495 -0.033499 -1.16827 
-0.083997 -0.029088 -1.15373 
-0.067134 -0.042037 -1.16511 
-0.06679 -0.042379 -1.16411 
-0.061985 -0.040429 -1.15966 
-0.097676 -0.032839 -1.17057 
-0.086414 -0.028462 -1.15559 
-0.062418 -0.040676 -1.15986 
-0.060675 -0.040767 -1.15938 
-0.096266 -0.034533 -1.17004 
-0.066296 -0.041813 -1.16464 
-0.062366 -0.040658 -1.16136 
-0.095292 -0.034368 -1.16993 
-0.094258 -0.034339 -1.16946 
-0.08674 -0.02795 -1.15674 
-0.065409 -0.041785 -1.16437 
-0.063852 -0.041603 -1.16376 
-0.083573 -0.028313 -1.15599 
-0.067297 -0.041064 -1.16648 
-0.066528 -0.041118 -1.16584 
-0.063315 -0.041426 -1.1634 
-0.060414 -0.040025 -1.1598 
-0.093314 -0.032784 -1.16968 
-0.090636 -0.032321 -1.16685 
-0.063192 -0.040842 -1.16463 
-0.05983 -0.039737 -1.1607 
-0.091428 -0.03217 -1.1683 
-0.082813 -0.028575 -1.15564 
-0.067853 -0.041134 -1.16707 
-0.065801 -0.040612 -1.16609 
-0.064657 -0.041261 -1.16522 
-0.064008 -0.041383 -1.16445 
-0.090423 -0.03176 -1.16798 
-0.084528 -0.028025 -1.15743 
-0.083131 -0.028003 -1.15725 
-0.067256 -0.040426 -1.16687 
-0.061994 -0.039753 -1.16212 
-0.092727 -0.031847 -1.16989 
-0.09163 -0.03191 -1.16897 
-0.089022 -0.031926 -1.16594 
-0.086235 -0.029811 -1.16218 
-0.08372 -0.02819 -1.15817 
-0.08257 -0.02833 -1.1569 
-0.067478 -0.039408 -1.1673 
-0.066964 -0.039845 -1.16707 
-0.066359 -0.040298 -1.16673 
-0.06358 -0.040608 -1.16571 
-0.06258 -0.040456 -1.16392 
-0.061527 -0.039091 -1.16202 
-0.060317 -0.039165 -1.16096 
-0.090863 -0.031504 -1.16918 
-0.088899 -0.031541 -1.16696 
-0.08794 -0.031311 -1.1659 
-0.086484 -0.030057 -1.16324 
-0.082678 -0.028076 -1.15795 
-0.087731 -0.031023 -1.16698 
-0.0856 -0.02965 -1.16274 
-0.085196 -0.029542 -1.16205 
-0.064743 -0.040229 -1.16653 
-0.062717 -0.040074 -1.16572 
-0.062567 -0.040171 -1.16516 
-0.061839 -0.039614 -1.16402 
-0.089066 -0.031164 -1.16849 
-0.085925 -0.02978 -1.16383 
-0.083311 -0.029184 -1.16084 
-0.067367 -0.039105 -1.16784 
-0.066011 -0.039838 -1.16777 
-0.0942 -0.031519 -1.17163 
-0.08466 -0.029315 -1.16354 
-0.065689 -0.040005 -1.16739 
-0.063474 -0.040166 -1.16632 
-0.061572 -0.039517 -1.16498 
-0.086733 -0.030126 -1.16613 
-0.059729 -0.037554 -1.16164 
-0.08589 -0.02959 -1.1662 
-0.082572 -0.028999 -1.16215 
-0.066479 -0.039433 -1.16832 
-0.061109 -0.039066 -1.1649 
-0.060559 -0.038491 -1.16413 
-0.083287 -0.028942 -1.16324 
-0.081566 -0.029078 -1.16285 
-0.064416 -0.0394 -1.16801 
-0.062799 -0.038974 -1.16753 
-0.058189 -0.037813 -1.16157 
-0.082519 -0.028847 -1.16317 
-0.065701 -0.039153 -1.16877 
-0.06043 -0.03843 -1.16473 
-0.058906 -0.036767 -1.1617 
-0.057632 -0.036749 -1.16179 
-0.08268 -0.028567 -1.16428 
-0.05921 -0.036632 -1.16206 
-0.084161 -0.028991 -1.16453 
-0.068292 -0.038045 -1.17001 
-0.067591 -0.03806 -1.17063 
-0.064916 -0.038404 -1.16969 
-0.060621 -0.038461 -1.16549 
-0.058698 -0.036279 -1.16164 
-0.055415 -0.037822 -1.16154 
-0.086193 -0.029717 -1.16739 
-0.081561 -0.028368 -1.16476 
-0.063932 -0.038622 -1.1689 
-0.061965 -0.03843 -1.16767 
-0.061527 -0.038835 -1.16625 
-0.059022 -0.035811 -1.16237 
-0.056878 -0.036514 -1.1615 
-0.056015 -0.036736 -1.16135 
-0.082109 -0.028112 -1.16523 
-0.063045 -0.038308 -1.1685 
-0.056532 -0.035517 -1.16148 
-0.085516 -0.02923 -1.16866 
-0.083673 -0.028517 -1.16609 
-0.068669 -0.037121 -1.17208 
-0.062514 -0.037457 -1.16933 
-0.061075 -0.037995 -1.16732 
-0.060211 -0.037295 -1.16615 
-0.058743 -0.035273 -1.1623 
-0.055506 -0.036492 -1.16162 
-0.055126 -0.037401 -1.16193 
-0.083761 -0.02842 -1.16774 
-0.061105 -0.036995 -1.16873 
-0.06014 -0.03684 -1.16642 
-0.054634 -0.036012 -1.16314 
-0.084141 -0.028411 -1.16861 
-0.060565 -0.037132 -1.16731 
-0.05615 -0.034899 -1.16188 
-0.08111 -0.027229 -1.1663 
-0.072194 -0.035171 -1.17247 
-0.069862 -0.036263 -1.17322 
-0.064641 -0.037516 -1.17111 
-0.061558 -0.037317 -1.16896 
-0.082631 -0.027876 -1.16679 
-0.08109 -0.02758 -1.16564 
-0.060161 -0.03648 -1.1669 
-0.056859 -0.034562 -1.16168 
-0.081599 -0.027194 -1.16693 
-0.064659 -0.037089 -1.17197 
-0.06312 -0.037513 -1.17022 
-0.061692 -0.036891 -1.1696 
-0.080165 -0.027073 -1.16621 
-0.065538 -0.03675 -1.17263 
-0.06327 -0.037171 -1.17115 
-0.061273 -0.036412 -1.16956 
-0.060309 -0.036107 -1.16768 
-0.054889 -0.035386 -1.16294 
-0.082353 -0.027322 -1.16779 
-0.081022 -0.026926 -1.16725 
-0.080117 -0.02687 -1.16693 
-0.064435 -0.036645 -1.17264 
-0.062204 -0.036781 -1.17072 
-0.059308 -0.033869 -1.16471 
-0.083291 -0.027138 -1.16901 
-0.08021 -0.02722 -1.16747 
-0.06307 -0.03658 -1.1717 
-0.059948 -0.034534 -1.16682 
-0.059612 -0.033838 -1.1658 
-0.057238 -0.032993 -1.16309 
-0.05677 -0.033194 -1.1628 
-0.08149 -0.02678 -1.16774 
-0.08073 -0.02688 -1.16801 
-0.065877 -0.036093 -1.17398 
-0.065756 -0.036452 -1.1734 
-0.062296 -0.036183 -1.17112 
-0.060945 -0.035701 -1.16947 
-0.06063 -0.035524 -1.16893 
-0.060395 -0.035452 -1.16814 
-0.055971 -0.033628 -1.16287 
-0.054835 -0.033624 -1.16366 
-0.084425 -0.026479 -1.17115 
-0.081682 -0.026297 -1.1684 
-0.081236 -0.026327 -1.16829 
-0.064847 -0.036067 -1.17356 
-0.063493 -0.0362 -1.17242 
-0.060786 -0.03524 -1.16923 
-0.059723 -0.03372 -1.16653 
-0.053837 -0.035157 -1.16424 
-0.060962 -0.034802 -1.16955 
-0.060171 -0.033802 -1.16766 
-0.055596 -0.032844 -1.16367 
-0.082059 -0.025836 -1.169 
-0.064083 -0.035486 -1.17338 
-0.059661 -0.033104 -1.16708 
-0.056793 -0.031975 -1.16418 
-0.05619 -0.03245 -1.16379 
-0.053744 -0.033266 -1.16453 
-0.054015 -0.034048 -1.16417 
-0.084624 -0.02577 -1.1719 
-0.081975 -0.025262 -1.16934 
-0.060295 -0.033162 -1.16823 
-0.058554 -0.031928 -1.1652 
-0.052907 -0.034092 -1.16626 
-0.083513 -0.025344 -1.17067 
-0.061572 -0.033944 -1.17057 
-0.06061 -0.032834 -1.16905 
-0.057648 -0.032141 -1.16424 
-0.054494 -0.031896 -1.16451 
-0.054188 -0.032977 -1.1642 
-0.082615 -0.02476 -1.17021 
-0.064932 -0.035253 -1.17422 
-0.059203 -0.03231 -1.16726 
-0.05779 -0.03142 -1.16494 
-0.0552 -0.031737 -1.16444 
-0.05396 -0.032465 -1.16464 
-0.083814 -0.024184 -1.17164 
-0.083108 -0.024208 -1.17085 
-0.06131 -0.032794 -1.17035 
-0.060183 -0.032741 -1.16861 
-0.065187 -0.034345 -1.17495 
-0.059427 -0.032099 -1.16813 
-0.057899 -0.030785 -1.16537 
-0.05417 -0.031324 -1.16537 
-0.052452 -0.033757 -1.16716 
-0.059171 -0.031378 -1.16791 
-0.056743 -0.030662 -1.16506 
-0.052925 -0.033105 -1.16659 
-0.097697 -0.020124 -1.1743 
-0.083551 -0.023688 -1.17148 
-0.059835 -0.031875 -1.16938 
-0.05958 -0.031483 -1.16894 
-0.056372 -0.02997 -1.1653 
-0.055611 -0.030636 -1.16504 
-0.054749 -0.031113 -1.16496 
-0.097917 -0.019779 -1.17488 
-0.09678 -0.020342 -1.17474 
-0.062108 -0.032264 -1.17164 
-0.060628 -0.032357 -1.16996 
-0.060357 -0.031617 -1.17078 
-0.058395 -0.030003 -1.16627 
-0.05556 -0.02992 -1.16548 
-0.054785 -0.030657 -1.16535 
-0.051702 -0.03327 -1.16824 
-0.062746 -0.032201 -1.17243 
-0.059746 -0.031386 -1.17032 
-0.059035 -0.029988 -1.16761 
-0.057797 -0.030043 -1.16568 
-0.053886 -0.031074 -1.16625 
-0.052594 -0.03205 -1.1675 
-0.064853 -0.032102 -1.17495 
-0.063222 -0.031863 -1.17336 
-0.058242 -0.029308 -1.16629 
-0.057163 -0.029054 -1.16589 
-0.055017 -0.029963 -1.16582 
-0.053226 -0.030968 -1.16709 
-0.053303 -0.031825 -1.16639 
-0.083472 -0.022289 -1.17199 
-0.059092 -0.028993 -1.16816 
-0.058679 -0.029188 -1.16709 
-0.052092 -0.031804 -1.16817 
-0.064232 -0.031776 -1.17435 
-0.057915 -0.028428 -1.16659 
-0.054388 -0.030119 -1.16659 
-0.0649 -0.031239 -1.17528 
-0.060907 -0.031258 -1.17198 
-0.060309 -0.030812 -1.17251 
-0.090346 -0.021086 -1.17534 
-0.06547 -0.031119 -1.17571 
-0.063032 -0.03095 -1.17394 
-0.05845 -0.028292 -1.16718 
-0.058374 -0.027501 -1.16745 
-0.05721 -0.02811 -1.16647 
-0.055556 -0.028577 -1.16661 
-0.052838 -0.029761 -1.16779 
-0.051524 -0.031592 -1.16902 
-0.095225 -0.020111 -1.17708 
-0.090822 -0.020859 -1.17624 
-0.056299 -0.028845 -1.16594 
-0.055591 -0.027769 -1.16699 
-0.064149 -0.03059 -1.17515 
-0.063294 -0.030493 -1.17451 
-0.059121 -0.027464 -1.16811 
-0.056991 -0.026689 -1.16725 
-0.056519 -0.027843 -1.16663 
-0.054963 -0.028261 -1.16707 
-0.051824 -0.02937 -1.16896 
-0.086655 -0.020704 -1.17496 
-0.085538 -0.020682 -1.17489 
-0.066094 -0.030239 -1.17655 
-0.063621 -0.02933 -1.17526 
-0.057667 -0.027613 -1.16688 
-0.053632 -0.029981 -1.16718 
-0.091001 -0.020612 -1.17722 
-0.088933 -0.020535 -1.17771 
-0.05792 -0.02666 -1.16753 
-0.091413 -0.020046 -1.17921 
-0.064278 -0.029756 -1.17568 
-0.05874 -0.026773 -1.1679 
-0.085922 -0.020604 -1.17578 
-0.064472 -0.028862 -1.17627 
-0.05608 -0.02659 -1.16735 
-0.053343 -0.028299 -1.16776 
-0.08749 -0.020429 -1.1779 
-0.085514 -0.020307 -1.1771 
-0.05911 -0.02571 -1.1688 
-0.05475 -0.026663 -1.16759 
-0.089553 -0.020014 -1.17881 
-0.084447 -0.020428 -1.1756 
-0.05815 -0.02585 -1.16812 
-0.053861 -0.02738 -1.16769 
-0.053042 -0.027315 -1.16834 
-0.051921 -0.028718 -1.16917 
-0.064454 -0.028066 -1.1769 
-0.055126 -0.025591 -1.16801 
-0.05443 -0.025948 -1.16808 
-0.056322 -0.025586 -1.1679 
-0.090581 -0.019677 -1.18036 
-0.063271 -0.027336 -1.17602 
-0.063615 -0.028183 -1.17578 
-0.059815 -0.025119 -1.16955 
-0.057311 -0.025398 -1.16809 
-0.052142 -0.02771 -1.16949 
-0.050922 -0.028473 -1.1708 
-0.089276 -0.01951 -1.18041 
-0.058031 -0.024913 -1.16876 
-0.052992 -0.026594 -1.16921 
-0.087906 -0.019524 -1.1795 
-0.065485 -0.032315 -1.18553 
-0.059084 -0.023909 -1.17003 
-0.055941 -0.024552 -1.16871 
-0.050635 -0.028132 -1.17135 
-0.05798 -0.02403 -1.16952 
-0.057074 -0.02445 -1.16882 
-0.063571 -0.031784 -1.18647 
-0.05934 -0.02378 -1.17037 
-0.054833 -0.02467 -1.16889 
-0.051414 -0.027593 -1.17068 
-0.063894 -0.031697 -1.1873 
-0.05536 -0.02394 -1.16958 
-0.053355 -0.025837 -1.16956 
-0.051969 -0.026106 -1.17103 
-0.059549 -0.023176 -1.17132 
-0.058873 -0.023364 -1.17047 
-0.057343 -0.023494 -1.16988 
-0.054301 -0.023943 -1.17013 
-0.054069 -0.024629 -1.16941 
-0.052945 -0.025155 -1.17075 
-0.064598 -0.031525 -1.18769 
-0.062697 -0.031598 -1.18713 
-0.05877 -0.022817 -1.17114 
-0.056179 -0.023615 -1.16973 
-0.054831 -0.023516 -1.17035 
-0.062642 -0.031408 -1.18867 
-0.061229 -0.031231 -1.18454 
-0.057672 -0.02294 -1.17063 
-0.05318 -0.024565 -1.17114 
-0.052392 -0.025184 -1.17128 
-0.050632 -0.02574 -1.17209 
-0.049826 -0.026249 -1.17242 
-0.060928 -0.0311 -1.18625 
-0.056495 -0.022763 -1.17102 
-0.053913 -0.023717 -1.17144 
-0.053279 -0.024099 -1.17151 
-0.064634 -0.031106 -1.18849 
-0.051682 -0.024554 -1.17194 
-0.06569 -0.030898 -1.18994 
-0.065101 -0.030956 -1.19012 
-0.059843 -0.030875 -1.18523 
-0.055699 -0.022799 -1.17127 
-0.052979 -0.023531 -1.17205 
-0.07891 -0.017315 -1.17881 
-0.05684 -0.02243 -1.17201 
-0.054881 -0.023057 -1.17137 
-0.051269 -0.024604 -1.17266 
-0.050646 -0.025154 -1.17256 
-0.063553 -0.030919 -1.1896 
-0.062218 -0.031264 -1.18948 
-0.061377 -0.031131 -1.1897 
-0.054594 -0.022575 -1.17281 
-0.053967 -0.023368 -1.17199 
-0.051364 -0.024386 -1.17328 
-0.053223 -0.022877 -1.17311 
-0.052513 -0.023463 -1.17265 
-0.063193 -0.030995 -1.1913 
-0.062784 -0.031127 -1.1902 
-0.055507 -0.022258 -1.17314 
-0.079566 -0.01639 -1.18031 
-0.064123 -0.030467 -1.19072 
-0.06365 -0.03055 -1.19127 
-0.053905 -0.022355 -1.17372 
-0.063018 -0.031068 -1.19221 
-0.062397 -0.031343 -1.19156 
-0.06071 -0.03092 -1.19082 
-0.062548 -0.030985 -1.19259 
-0.05546 -0.022004 -1.17481 
-0.054563 -0.022099 -1.17407 
-0.06575 -0.029248 -1.19268 
-0.04667 -0.02676 -1.17754 
-0.064944 -0.029824 -1.19455 
-0.079536 -0.015233 -1.1817 
-0.07075 -0.015528 -1.19101 
-0.070778 -0.014948 -1.19179 
-0.069448 -0.015378 -1.19126 
-0.069315 -0.014915 -1.19168 
-0.069371 -0.014022 -1.19309 
-0.066251 -0.013465 -1.19343 
-0.086126 0.002817 -1.17984 
-0.065566 -0.014037 -1.19256 
-0.088107 0.003684 -1.18067 
-0.085777 0.003529 -1.18114 
-0.064482 -0.013427 -1.19314 
-0.062906 -0.01303 -1.19327 
-0.083469 0.003686 -1.18128 
-0.081809 0.003401 -1.18065 
-0.063706 -0.006913 -1.1928 
-0.063186 -0.006911 -1.19337 
-0.065673 -0.00635 -1.19466 
-0.060364 -0.007039 -1.19335 
-0.063341 -0.006763 -1.19416 
-0.062591 -0.007067 -1.19491 
-0.062349 -0.007061 -1.19319 
-0.061318 -0.006987 -1.19377 
-0.05792 -0.006908 -1.19235 
-0.057376 -0.006519 -1.19294 
-0.05234 -0.00251 -1.19142 
-0.085746 -0.030457 -1.14865 
-0.065854 -0.043924 -1.15819 
-0.065833 -0.043922 -1.15896 
-0.063966 -0.04262 -1.16014 
-0.063004 -0.041874 -1.15988 
-0.092053 -0.033409 -1.16743 
-0.08428 -0.028022 -1.15684 
-0.09226 -0.032562 -1.16884 
-0.085473 -0.028008 -1.15664 
-0.060982 -0.039536 -1.16088 
-0.060594 -0.038383 -1.16178 
-0.060901 -0.038459 -1.16252 
-0.067096 -0.038825 -1.16936 
-0.060054 -0.037603 -1.16227 
-0.060172 -0.037769 -1.16522 
-0.059695 -0.037146 -1.16293 
-0.05967 -0.03667 -1.16357 
-0.08277 -0.028235 -1.16538 
-0.059428 -0.035865 -1.16322 
-0.058401 -0.035321 -1.16189 
-0.057929 -0.035598 -1.16151 
-0.059348 -0.034796 -1.16405 
-0.057617 -0.034159 -1.16187 
-0.058091 -0.034066 -1.16226 
-0.05843 -0.033846 -1.16339 
-0.057914 -0.033273 -1.16332 
-0.057659 -0.033679 -1.16215 
-0.05846 -0.03286 -1.16431 
-0.059096 -0.033467 -1.16464 
-0.058495 -0.031404 -1.16573 
-0.058371 -0.030662 -1.16598 
-0.061981 -0.031235 -1.19038 
-0.060001 -0.006914 -1.19389 
-0.101543 -0.034233 -1.16441 
-0.101062 -0.034101 -1.16546 
-0.1003 -0.03475 -1.16384 
-0.100744 -0.034606 -1.16457 
-0.100535 -0.034222 -1.16526 
-0.09912 -0.034342 -1.16551 
-0.095573 -0.035965 -1.16803 
-0.098412 -0.034421 -1.168 
-0.096921 -0.035251 -1.16795 
-0.096281 -0.035785 -1.16787 
-0.09635 -0.035432 -1.16866 
-0.098297 -0.034558 -1.16891 
-0.09703 -0.03522 -1.16858 
-0.09967 -0.033693 -1.16841 
-0.097104 -0.034963 -1.1693 
-0.098195 -0.03394 -1.16975 
-0.096661 -0.034767 -1.16983 
-0.099217 -0.033005 -1.16935 
-0.0978 -0.03441 -1.16964 
-0.097186 -0.034099 -1.1701 
-0.098523 -0.032681 -1.17003 
-0.077019 -0.031003 -1.16929 
-0.077151 -0.030644 -1.16967 
-0.077424 -0.030403 -1.17018 
-0.065803 -0.029112 -1.19332 
-0.06597 -0.029164 -1.19424 
-0.068476 -0.015099 -1.19139 
-0.067656 -0.015097 -1.19153 
-0.066133 -0.014632 -1.19191 
-0.067358 -0.01458 -1.19199 
-0.078434 -0.029615 -1.16806 
-0.075871 -0.032405 -1.17101 
-0.079175 -0.028812 -1.1683 
-0.078137 -0.02986 -1.16905 
-0.076422 -0.031418 -1.17033 
-0.0763 -0.032059 -1.17142 
-0.07982 -0.02809 -1.16881 
-0.07902 -0.02915 -1.1694 
-0.07835 -0.02978 -1.17 
-0.063602 -0.030756 -1.19224 
-0.063944 -0.030054 -1.19163 
-0.063878 -0.030313 -1.19232 
-0.064476 -0.029657 -1.19248 
-0.064995 -0.029789 -1.1936 
-0.065113 -0.029882 -1.19408 
-0.063613 -0.030799 -1.19295 
-0.08491 0.00233 -1.17878 
-0.089034 0.003675 -1.17999 
-0.066904 -0.00575 -1.19549 
-0.064806 -0.006784 -1.19508 
-0.099587 -0.034874 -1.16237 
-0.069314 -0.044605 -1.16713 
-0.06879 -0.043955 -1.16553 
-0.062016 -0.013988 -1.19194 
-0.064487 -0.034113 -1.17423 
-0.063943 -0.034435 -1.17343 
-0.063851 -0.032499 -1.17363 
-0.054005 -0.037486 -1.16413 
-0.052994 -0.036165 -1.16575 
-0.05114 -0.032968 -1.1692 
-0.06024 -0.0427 -1.15894 
-0.059827 -0.042266 -1.15916 
-0.050953 -0.030554 -1.17036 
-0.051076 -0.029318 -1.17038 
-0.090313 -0.027989 -1.15446 
-0.084728 -0.029508 -1.1607 
-0.08418 -0.02927 -1.16019 
-0.083807 -0.028943 -1.15984 
-0.083274 -0.028543 -1.15912 
-0.0817 -0.02917 -1.16182 
-0.08173 -0.029127 -1.16109 
-0.081921 -0.029221 -1.16041 
-0.081999 -0.029051 -1.15984 
-0.082074 -0.028416 -1.15815 
-0.082927 -0.029171 -1.16042 
-0.068694 -0.043469 -1.16748 
-0.068271 -0.042958 -1.16604 
-0.067618 -0.041973 -1.16592 
-0.065245 -0.03332 -1.1751 
-0.063115 -0.035447 -1.17226 
-0.061593 -0.035493 -1.17035 
-0.062913 -0.033178 -1.17217 
-0.062377 -0.034475 -1.17126 
-0.061356 -0.034685 -1.17019 
-0.062158 -0.032897 -1.17125 
-0.061871 -0.031357 -1.17253 
-0.061462 -0.030638 -1.17243 
-0.062465 -0.030255 -1.17371 
-0.062889 -0.028889 -1.17461 
-0.06133 -0.02972 -1.1721 
-0.062098 -0.029098 -1.1735 
-0.061857 -0.029816 -1.17298 
-0.061661 -0.02829 -1.17325 
-0.062511 -0.026859 -1.17541 
-0.061642 -0.027245 -1.17345 
-0.06415 -0.04287 -1.15813 
-0.064061 -0.042259 -1.15631 
-0.08521 0.0117 -1.17213 
-0.055428 0.011114 -1.19143 
-0.062775 -0.033471 -1.13781 
-0.062181 -0.036328 -1.1408 
-0.041539 -0.019876 -1.18778 
-0.070018 0.003668 -1.12716 
-0.068908 0.001028 -1.12689 
-0.065841 -0.003404 -1.12793 
-0.068848 -0.005608 -1.1256 
-0.057287 0.021006 -1.14378 
-0.067555 0.009944 -1.1294 
-0.067504 0.009238 -1.129 
-0.058691 -0.040768 -1.14883 
-0.059808 -0.044301 -1.15087 
-0.034774 -0.048665 -1.08205 
-0.033178 -0.048118 -1.08408 
-0.03333 -0.04703 -1.08647 
-0.034752 -0.047982 -1.08309 
-0.032538 -0.048957 -1.08278 
-0.035208 -0.046867 -1.08455 
-0.037199 -0.048437 -1.08201 
-0.03637 -0.047691 -1.08282 
-0.033293 -0.04915 -1.08191 
-0.034128 -0.047221 -1.08504 
-0.036655 -0.046624 -1.08392 
-0.038245 -0.046443 -1.083 
-0.037257 -0.046998 -1.0832 
-0.037782 -0.046071 -1.08372 
-0.034066 -0.048016 -1.0835 
-0.032318 -0.049091 -1.08235 
-0.034034 -0.04981 -1.08126 
-0.03842 -0.04566 -1.08314 
-0.023065 -0.020141 -1.06329 
-0.022205 -0.019402 -1.06163 
-0.02268 -0.02045 -1.06517 
-0.02387 -0.02059 -1.06655 
-0.020343 -0.019997 -1.06329 
-0.0221 -0.02086 -1.06724 
-0.021717 -0.021247 -1.07018 
-0.023159 -0.021091 -1.06945 
-0.02445 -0.0209 -1.06893 
-0.024366 -0.020244 -1.06404 
-0.01924 -0.02092 -1.0653 
-0.02158 -0.02031 -1.06428 
-0.019543 -0.020519 -1.06478 
-0.021806 -0.021104 -1.06892 
-0.02287 -0.02094 -1.06849 
-0.0243 -0.02073 -1.0679 
-0.025255 -0.02049 -1.06688 
-0.022126 -0.020064 -1.06266 
-0.020656 -0.020331 -1.06442 
-0.020109 -0.020622 -1.06546 
-0.021763 -0.02069 -1.06615 
-0.02013 -0.02145 -1.06797 
-0.021008 -0.021314 -1.06917 
-0.046941 -0.022406 -1.08833 
-0.049359 -0.021824 -1.0947 
-0.04375 -0.02304 -1.08732 
-0.044443 -0.022611 -1.08574 
-0.04482 -0.022734 -1.08685 
-0.049512 -0.023092 -1.09765 
-0.048437 -0.021905 -1.0935 
-0.043174 -0.023324 -1.08704 
-0.043215 -0.023306 -1.08865 
-0.044469 -0.022827 -1.08867 
-0.044606 -0.022945 -1.09023 
-0.05026 -0.021307 -1.09335 
-0.046252 -0.022608 -1.09021 
-0.04764 -0.022202 -1.09028 
-0.047019 -0.022328 -1.08577 
-0.045658 -0.022871 -1.0909 
-0.049432 -0.022404 -1.09626 
-0.050525 -0.021467 -1.09426 
-0.04773 -0.02228 -1.09368 
-0.046443 -0.022761 -1.09235 
-0.048903 -0.021853 -1.08846 
-0.045185 -0.02276 -1.08909 
-0.045547 -0.023149 -1.09191 
-0.047399 -0.022663 -1.09427 
-0.043916 -0.023369 -1.09011 
-0.04846 -0.02194 -1.09043 
-0.046211 -0.023108 -1.09293 
-0.048534 -0.022285 -1.09526 
-0.048501 -0.022881 -1.09624 
-0.048183 -0.02265 -1.0955 
-0.047405 -0.022331 -1.09209 
-0.049855 -0.02141 -1.09188 
-0.04943 -0.0216 -1.08931 
-0.047595 -0.022342 -1.08598 
-0.042924 -0.023663 -1.08688 
-0.040553 -0.02557 -1.0725 
-0.030354 -0.025909 -1.07118 
-0.038468 -0.02472 -1.06922 
-0.030665 -0.025918 -1.06881 
-0.033984 -0.025061 -1.07145 
-0.036633 -0.024556 -1.0687 
-0.034745 -0.0248 -1.06954 
-0.033312 -0.025077 -1.07079 
-0.03216 -0.02521 -1.06825 
-0.037004 -0.024247 -1.06796 
-0.03607 -0.02503 -1.07207 
-0.034497 -0.024402 -1.0675 
-0.040226 -0.025423 -1.07093 
-0.036458 -0.024867 -1.07112 
-0.04069 -0.02569 -1.0718 
-0.038933 -0.024885 -1.07004 
-0.032526 -0.025363 -1.07209 
-0.03341 -0.02485 -1.06844 
-0.033246 -0.025022 -1.06974 
-0.031984 -0.025346 -1.0717 
-0.033245 -0.025223 -1.07191 
-0.037677 -0.024869 -1.0722 
-0.038273 -0.024983 -1.07243 
-0.038698 -0.024962 -1.07215 
-0.039385 -0.02511 -1.07215 
-0.040125 -0.025519 -1.07282 
-0.036928 -0.024768 -1.07013 
-0.031902 -0.025346 -1.06931 
-0.034903 -0.024569 -1.0683 
-0.131629 -0.212009 -1.17291 
-0.132151 -0.211519 -1.17224 
-0.132905 -0.213847 -1.17234 
-0.13126 -0.210654 -1.17263 
-0.134078 -0.212006 -1.1707 
-0.12977 -0.21161 -1.17434 
-0.130254 -0.212559 -1.17448 
-0.133093 -0.215193 -1.17261 
-0.133417 -0.214047 -1.17201 
-0.130917 -0.213632 -1.17428 
-0.129277 -0.211981 -1.17502 
-0.130433 -0.210136 -1.17283 
-0.129862 -0.210851 -1.17392 
-0.130448 -0.211323 -1.1737 
-0.132336 -0.215571 -1.17348 
-0.129104 -0.218611 -1.17805 
-0.127507 -0.214328 -1.17694 
-0.129994 -0.219489 -1.17774 
-0.131584 -0.220016 -1.17729 
-0.130463 -0.219994 -1.17778 
-0.128288 -0.214924 -1.17732 
-0.12833 -0.21438 -1.17693 
-0.126871 -0.215362 -1.17859 
-0.127638 -0.217811 -1.17914 
-0.12932 -0.22015 -1.1785 
-0.12767 -0.21565 -1.17831 
-0.12931 -0.217525 -1.17744 
-0.128913 -0.215324 -1.17707 
-0.129049 -0.21454 -1.17659 
-0.12743 -0.21477 -1.17751 
-0.126361 -0.216208 -1.17952 
-0.126997 -0.216053 -1.17915 
-0.127825 -0.216418 -1.17854 
0.03021 -0.240247 -1.1615 
0.029025 -0.241173 -1.15883 
0.032643 -0.238245 -1.16903 
0.02884 -0.24091 -1.15993 
0.023491 -0.243877 -1.14924 
0.03153 -0.239241 -1.16533 
0.034156 -0.236784 -1.1736 
0.033091 -0.235484 -1.17748 
0.03131 -0.238165 -1.17037 
0.029301 -0.240975 -1.15911 
0.025207 -0.243227 -1.15094 
0.029267 -0.240565 -1.16115 
0.027013 -0.241957 -1.15588 
0.025794 -0.242521 -1.15438 
0.02472 -0.243057 -1.15257 
0.0263 -0.242662 -1.15302 
0.0235 -0.243993 -1.14825 
0.027318 -0.242303 -1.15459 
0.02794 -0.241787 -1.15582 
0.0289 -0.241395 -1.15767 
0.032918 -0.236022 -1.17632 
0.033537 -0.236322 -1.17535 
0.032149 -0.236882 -1.17397 
0.033009 -0.237213 -1.17269 
0.032773 -0.237743 -1.17092 
0.031651 -0.238905 -1.16649 
0.03134 -0.23934 -1.16455 
0.03073 -0.23981 -1.16249 
0.052453 -0.097977 -1.1096 
0.051892 -0.098567 -1.10976 
0.053265 -0.096469 -1.10944 
0.054744 -0.097495 -1.10777 
0.055227 -0.096399 -1.10763 
0.053152 -0.098689 -1.10877 
0.055605 -0.096546 -1.10688 
0.052238 -0.099462 -1.10938 
0.02009 -0.07081 -1.17722 
0.022191 -0.071313 -1.17671 
0.023783 -0.071276 -1.17754 
0.020385 -0.070943 -1.1758 
0.019042 -0.070399 -1.17606 
0.02009 -0.07069 -1.17836 
0.02431 -0.07145 -1.17671 
0.020663 -0.070995 -1.17673 
0.022872 -0.070583 -1.18069 
0.021597 -0.07066 -1.18085 
0.02149 -0.07157 -1.1753 
0.022676 -0.070952 -1.17981 
0.02228 -0.07202 -1.17491 
0.024766 -0.072791 -1.1741 
0.022788 -0.071803 -1.17522 
0.023367 -0.07264 -1.17429 
0.023935 -0.070902 -1.17915 
0.021193 -0.070755 -1.1802 
0.023283 -0.071605 -1.17584 
0.024763 -0.072285 -1.1748 
0.025405 -0.072119 -1.17484 
0.02615 -0.071128 -1.17654 
0.02467 -0.071724 -1.17595 
0.025231 -0.071101 -1.17736 
0.02454 -0.07108 -1.17792 
0.02163 -0.07131 -1.17595 
0.022251 -0.071166 -1.17863 
0.021029 -0.070972 -1.17863 
0.01994 -0.07046 -1.17954 
0.01898 -0.0702 -1.17777 
0.08566 -0.22376 -1.22611 
0.084817 -0.223098 -1.22782 
0.089719 -0.22851 -1.20436 
0.084977 -0.222638 -1.22831 
0.08585 -0.224235 -1.22568 
0.086433 -0.223031 -1.2263 
0.089324 -0.224902 -1.21918 
0.085067 -0.223628 -1.22669 
0.089151 -0.225409 -1.21799 
0.08174 -0.22256 -1.23042 
0.086306 -0.22397 -1.22529 
0.08384 -0.22199 -1.22972 
0.081138 -0.222616 -1.2309 
0.089374 -0.224462 -1.22088 
0.084164 -0.223528 -1.22759 
0.089912 -0.225373 -1.2161 
0.088553 -0.223956 -1.22263 
0.083287 -0.223222 -1.22868 
0.090096 -0.224969 -1.21702 
0.090315 -0.227782 -1.20559 
0.089838 -0.226648 -1.21234 
0.090116 -0.226873 -1.21129 
0.089942 -0.227338 -1.21 
0.089997 -0.227951 -1.20697 
0.089599 -0.228724 -1.20326 
0.090157 -0.227702 -1.20807 
0.090383 -0.227031 -1.20982 
0.09027 -0.225863 -1.21366 
0.088639 -0.224777 -1.22171 
0.087966 -0.224269 -1.22299 
0.08713 -0.22455 -1.2232 
0.086722 -0.224376 -1.22407 
0.087297 -0.223302 -1.22515 
0.085702 -0.223038 -1.22701 
0.08385 -0.22268 -1.22903 
0.082878 -0.221794 -1.23047 
0.082219 -0.221793 -1.23097 
0.080799 -0.221486 -1.23207 
0.079643 -0.221517 -1.23249 
0.079354 -0.222229 -1.23171 
0.08044 -0.222211 -1.23155 
0.082672 -0.222542 -1.22981 
0.088065 -0.225002 -1.22199 
0.088873 -0.225129 -1.22034 
0.08354 0.033659 -1.10194 
0.088555 0.029097 -1.1073 
0.091967 0.029372 -1.10748 
0.089775 0.030737 -1.10583 
0.086552 0.030453 -1.10574 
0.082007 0.031788 -1.10346 
0.088318 0.032655 -1.10353 
0.086065 0.029937 -1.10606 
0.080436 0.032781 -1.10235 
0.082054 0.032457 -1.10298 
0.091574 0.028161 -1.10835 
0.084756 0.0307 -1.10496 
0.088295 0.028417 -1.10783 
0.085862 0.033411 -1.10222 
0.09014 0.028248 -1.10814 
0.09052 0.029165 -1.10744 
0.088066 0.030588 -1.10583 
0.085924 0.031197 -1.10484 
0.08458 0.031379 -1.10429 
0.08344 0.031505 -1.10397 
0.08169 0.033986 -1.10145 
0.085432 0.0326 -1.10306 
0.090185 0.032015 -1.10456 
0.00197 -0.117681 -1.15431 
0.00468 -0.115545 -1.1572 
-0.001597 -0.121044 -1.15096 
0.00296 -0.11697 -1.15487 
0.000756 -0.11818 -1.15249 
0.002821 -0.116604 -1.15612 
0.000886 -0.118427 -1.15379 
-0.000952 -0.119217 -1.15075 
0.001673 -0.117888 -1.15353 
0.003034 -0.117243 -1.1541 
0.000322 -0.118529 -1.15199 
-0.000319 -0.119089 -1.15213 
-0.00136 -0.12021 -1.1512 
-0.001676 -0.119824 -1.15009 
-0.000941 -0.12001 -1.15228 
0.003574 -0.116471 -1.15562 
0.001276 -0.11814 -1.15471 
0.000437 -0.118943 -1.15411 
0.038683 -0.031405 -1.19288 
0.045328 -0.012747 -1.19607 
0.042445 -0.012371 -1.19659 
0.045461 -0.011921 -1.19587 
0.046427 -0.01247 -1.19544 
0.042778 -0.011693 -1.19642 
0.044063 -0.011978 -1.19629 
0.04479 -0.01133 -1.1957 
0.045805 -0.011532 -1.19542 
0.043167 -0.011127 -1.19609 
0.046853 -0.011827 -1.19488 
0.047732 -0.009781 -1.19115 
0.047484 -0.008563 -1.1905 
0.051702 -0.00202 -1.1964 
0.064701 -0.003934 -1.18903 
0.052745 -0.001255 -1.19606 
0.056066 -0.002191 -1.1936 
0.053884 -0.000255 -1.19549 
0.054279 -0.00163 -1.19518 
0.061953 -0.002631 -1.19093 
0.06368 -0.002456 -1.19001 
0.064976 -0.003318 -1.18895 
0.051659 -0.000263 -1.19653 
0.051478 0.001014 -1.1965 
0.063674 -0.00121 -1.19004 
0.064477 -0.0021 -1.18948 
0.04799 0.00087 -1.19724 
0.05985 -0.000657 -1.19173 
0.046943 0.00098 -1.19738 
0.052774 0.000242 -1.19608 
0.061395 -0.000693 -1.19127 
0.04943 0.00133 -1.19688 
0.064621 -0.000324 -1.1891 
0.047696 0.002128 -1.19678 
0.050166 0.001719 -1.1967 
0.052748 0.001417 -1.19568 
0.053127 0.000773 -1.19577 
0.058699 -0.000289 -1.1919 
0.062867 -0.000111 -1.19053 
0.045076 0.000798 -1.19768 
0.052027 0.001479 -1.19613 
0.057607 -0.000184 -1.19203 
0.059291 0.001028 -1.19172 
0.050422 0.002725 -1.1963 
0.05723 9.3e-05 -1.19204 
0.061124 0.0006 -1.19135 
0.042535 0.003205 -1.19924 
0.04361 0.00276 -1.19875 
0.046066 0.002 -1.19697 
0.056936 0.000556 -1.19211 
0.044809 0.001962 -1.19704 
0.046143 0.002599 -1.19684 
0.056283 0.001025 -1.19221 
0.062635 0.00077 -1.19045 
0.04871 0.003019 -1.19663 
0.051293 0.002739 -1.19582 
0.056093 0.001766 -1.19203 
0.06023 0.00158 -1.19137 
0.061277 0.001585 -1.19096 
0.04927 0.00345 -1.19628 
0.051898 0.002667 -1.19545 
0.055273 0.002314 -1.1922 
0.06253 0.001651 -1.19009 
0.063936 0.001229 -1.18912 
0.04831 0.00377 -1.19633 
0.054372 0.002513 -1.19264 
0.06315 0.00234 -1.18909 
0.0536 0.002967 -1.19309 
0.057514 0.002038 -1.19181 
0.057773 0.003048 -1.1916 
0.058489 0.002128 -1.1917 
0.059289 0.002101 -1.19155 
0.059784 0.002583 -1.1912 
0.043277 0.005199 -1.19989 
0.049099 0.004718 -1.1955 
0.0608 0.00275 -1.1906 
0.06173 0.0025 -1.19017 
0.044342 0.006058 -1.19953 
0.050086 0.00414 -1.19545 
0.056694 0.003444 -1.19178 
0.048036 0.006523 -1.19755 
0.04983 0.00488 -1.19513 
0.05061 0.00457 -1.1948 
0.051769 0.004361 -1.19421 
0.061113 0.003879 -1.18979 
0.048261 0.007577 -1.19756 
0.050427 0.005181 -1.19485 
0.058618 0.003564 -1.19117 
0.060101 0.004329 -1.19011 
0.062427 0.003422 -1.18911 
0.058024 0.004165 -1.19122 
0.044658 0.007036 -1.19942 
0.046079 0.006307 -1.19873 
0.049337 0.00731 -1.19679 
0.058425 0.005059 -1.19093 
0.059561 0.004869 -1.19018 
0.062079 0.004461 -1.189 
0.06315 0.00416 -1.18831 
0.055358 0.006288 -1.19387 
0.056479 0.006309 -1.19331 
0.050371 0.007032 -1.19558 
0.050875 0.006928 -1.19523 
0.051284 0.0067 -1.19502 
0.055968 0.00782 -1.19362 
0.061022 0.004731 -1.18954 
0.062636 0.00526 -1.18872 
0.05183 0.00784 -1.19486 
0.060659 0.005847 -1.18969 
0.041829 0.009332 -1.19979 
0.054445 0.007477 -1.19426 
0.058153 0.007297 -1.19236 
0.059848 0.006038 -1.19015 
0.040638 0.009424 -1.20022 
0.042987 0.010058 -1.19929 
0.0455 0.009387 -1.19887 
0.061952 0.006358 -1.18907 
0.063752 0.006798 -1.18859 
0.040152 0.010605 -1.20031 
0.040144 0.009799 -1.20051 
0.047024 0.01053 -1.19786 
0.047574 0.009438 -1.19791 
0.051392 0.008312 -1.19499 
0.05283 0.00896 -1.19438 
0.052759 0.007864 -1.19471 
0.060395 0.007059 -1.18972 
0.038684 0.010787 -1.20091 
0.04089 0.01017 -1.19992 
0.049212 0.010476 -1.19678 
0.049216 0.009538 -1.19693 
0.054422 0.008954 -1.19409 
0.05687 0.008487 -1.19315 
0.061575 0.008235 -1.18902 
0.064261 0.007452 -1.18836 
0.065515 0.006852 -1.18769 
0.052011 0.010096 -1.19442 
0.063596 0.008038 -1.18852 
0.065206 0.008127 -1.18776 
0.04139 0.0108 -1.19926 
0.041935 0.010345 -1.19931 
0.053359 0.009978 -1.19387 
0.056212 0.00985 -1.19316 
0.059232 0.008616 -1.19174 
0.061991 0.007798 -1.18894 
0.066808 0.007601 -1.18682 
0.036646 0.01129 -1.20117 
0.04919 0.01116 -1.19641 
0.052555 0.009893 -1.19413 
0.043199 0.010838 -1.19872 
0.045057 0.011421 -1.1979 
0.058154 0.009502 -1.19227 
0.05945 0.009189 -1.19149 
0.066539 0.00858 -1.18679 
0.039859 0.011401 -1.20005 
0.047256 0.011153 -1.19742 
0.050095 0.010699 -1.19609 
0.051242 0.011388 -1.19472 
0.057317 0.010218 -1.19252 
0.065493 0.009265 -1.1872 
0.042178 0.011431 -1.19827 
0.054464 0.010069 -1.19369 
0.055801 0.010628 -1.19303 
0.059022 0.010798 -1.19131 
0.063358 0.008944 -1.18818 
0.067937 0.008847 -1.18553 
0.071744 0.006457 -1.18131 
0.037009 0.012794 -1.19954 
0.038612 0.011769 -1.20032 
0.04002 0.012658 -1.19894 
0.047216 0.011932 -1.19678 
0.05713 0.01115 -1.19215 
0.062259 0.009007 -1.18848 
0.038261 0.012849 -1.19946 
0.038649 0.012391 -1.1998 
0.045311 0.011955 -1.19726 
0.047935 0.012449 -1.19594 
0.048364 0.012104 -1.19613 
0.0532 0.011 -1.19328 
0.05384 0.01089 -1.19326 
0.07077 0.00729 -1.18149 
0.042407 0.012091 -1.19737 
0.044487 0.012268 -1.19692 
0.050347 0.011846 -1.19511 
0.05494 0.011453 -1.19275 
0.056724 0.012309 -1.19155 
0.063055 0.009777 -1.1878 
0.065128 0.010004 -1.18697 
0.04643 0.012469 -1.19632 
0.058454 0.011602 -1.19116 
0.06298 0.01053 -1.18727 
0.064164 0.010499 -1.18694 
0.066956 0.009732 -1.18599 
0.046946 0.012915 -1.19542 
0.049998 0.012763 -1.19438 
0.071708 0.007641 -1.18082 
0.07274 0.007516 -1.18024 
0.03596 0.01298 -1.19902 
0.037826 0.013508 -1.19839 
0.05314 0.0119 -1.19257 
0.053972 0.011764 -1.19252 
0.039432 0.013478 -1.1982 
0.049115 0.013109 -1.19423 
0.051066 0.012666 -1.19359 
0.071154 0.007972 -1.18083 
0.045272 0.012968 -1.19553 
0.053246 0.012782 -1.1915 
0.054323 0.012541 -1.19162 
0.059022 0.012333 -1.1903 
0.0646 0.01142 -1.18602 
0.070848 0.008481 -1.18056 
0.039297 0.013783 -1.19751 
0.050906 0.01316 -1.19273 
0.052494 0.012836 -1.19179 
0.055847 0.01256 -1.1915 
