ply
format ascii 1.0
element vertex 1544
property float x
property float y
property float z
element face 0
property list uchar int vertex_index
end_header
-0.642511 0.591405 -0.291941
-0.742463 0.786216 -0.270544
-0.321145 0.36596 -0.524565
-0.0962545 0.127081 -0.0423569
-0.477343 0.931377 -0.434642
-0.327736 -0.0755119 -0.281178
-0.260024 0.601506 -0.199523
-0.339854 -0.0685957 -0.2276
-0.0910488 0.492549 -0.173404
0.0299699 0.0031683 -0.31252
-0.10423 0.0303624 -0.390395
0.0383823 0.103204 -0.117169
-0.691075 0.24137 -0.0151948
-0.516096 0.450831 -0.46816
-0.102035 0.152647 -0.0385653
-0.67567 0.797581 -0.265801
-0.00823053 -0.00220564 -0.342935
-0.281081 -0.0793095 -0.279908
-0.569904 0.909807 -0.423692
-0.475132 0.526461 -0.0982775
-0.107924 0.142574 -0.463282
-0.808277 0.46898 -0.0178928
-0.0123466 0.315786 -0.173925
-0.253386 0.191554 -0.556254
-0.38724 0.336799 -0.573489
-0.851902 0.682417 0.00137365
-0.315644 0.0108577 0.0277846
-0.600827 0.277013 -0.0170255
-0.225752 0.590467 -0.19366
-0.678905 0.685398 -0.286127
-0.263814 0.307608 0.0602946
-0.0328329 -0.0266878 -0.329172
-0.21517 0.165366 0.042254
-0.471072 0.556842 -0.153587
-0.387166 0.0235804 0.0299018
-0.19315 0.173836 0.030028
-0.151368 -0.0610986 -0.342065
-0.374345 0.220205 0.0840257
-0.489299 0.959226 -0.412021
-0.202826 0.315718 0.0206962
-0.543226 0.0505703 -0.0664685
-0.140971 0.54453 -0.201258
-0.00403233 0.0264727 -0.108232
-0.223338 -0.00573284 -0.0157757
-0.21345 0.00184034 -0.498388
-0.243512 -0.0845051 -0.432867
-0.56063 0.242998 -0.0329791
-0.523704 0.793669 -0.330921
-0.745868 0.546703 -0.0368748
-0.121123 0.149032 -0.471961
-0.337655 -0.0502746 -0.0764072
-0.281602 -0.0850419 -0.221602
-0.781817 0.775611 -0.273094
-0.676535 0.385455 -0.0247689
-0.437739 -0.0649142 0.0372566
-0.265042 -0.0809439 -0.199807
-0.333034 0.576234 -0.117221
-0.00704879 0.206599 -0.170168
-0.569613 -0.0655752 0.0181464
-0.0680328 0.044289 -0.103289
-0.325783 0.384181 0.00951567
-0.505144 -0.0795899 0.0323995
-0.485725 0.188868 0.0366337
-0.310519 0.369914 -0.51049
-0.228958 0.117467 -0.538351
-0.186912 0.355432 -0.489595
0.00504908 0.196996 -0.268437
-0.257777 0.212289 -0.559847
-0.321729 0.401078 -0.0147542
-0.702676 0.23766 -0.0155874
-0.187165 -0.000112545 -0.480922
-0.756623 0.361361 -0.0197195
-0.424095 0.945021 -0.485691
-0.626167 0.437169 -0.0501264
-0.268459 0.15048 0.0629806
-0.487312 0.0489439 -0.0171717
-0.217946 0.443206 -0.454854
-0.692881 0.651163 -0.160858
-0.21218 -0.0279496 -0.489689
-0.433052 0.455979 -0.0324202
-0.511942 0.779965 -0.371445
-0.201205 -0.0806755 -0.151672
-0.463679 0.996142 -0.449879
-0.0357972 0.0156467 -0.368639
-0.435842 0.0147254 0.0144009
-0.0267659 0.19972 -0.124382
-0.151919 0.345902 -0.00198331
-0.828212 0.568223 0.0437662
-0.365085 0.34855 -0.561035
-0.447978 0.355358 0.0356002
-0.44025 0.341089 0.0559122
-0.0286146 0.333182 -0.36156
-0.00551051 0.191586 -0.310903
-0.27189 -0.0494394 -0.0056387
-0.700018 0.679411 -0.327688
-0.262099 0.405833 -0.475314
-0.0115875 0.146384 -0.325916
-0.153601 -0.0476327 -0.085066
-0.100144 -0.0773866 -0.252539
-0.656073 0.268374 -0.0140491
-0.300526 -0.0861215 -0.228602
-0.828662 0.617381 0.0220261
-0.307713 -0.0851341 -0.254102
-0.220666 -0.0821577 -0.419243
-0.105885 0.360011 -0.0406604
-0.37878 0.560725 -0.101582
-0.11055 0.26443 -0.0221671
-0.0289351 0.384828 -0.192054
-0.147536 0.00950565 -0.454668
-0.451189 0.0981105 0.0366237
-0.223997 0.0868759 -0.532859
-0.288324 0.580733 -0.357628
-0.519706 0.841166 -0.376873
-0.266165 0.430377 -0.471372
-0.229201 0.206837 0.0568936
-0.808755 0.781848 -0.212883
-0.381015 0.233833 0.0826677
-0.222561 0.0449159 -0.523477
-0.498911 0.0919414 -0.0300467
0.043576 0.0888608 -0.119765
-0.576586 0.569803 -0.199241
-0.615381 0.824383 -0.307102
-0.129083 0.312433 -0.479408
-0.0149224 0.1589 -0.324445
-0.13815 0.263435 -0.491871
-0.232295 0.47137 -0.052602
-0.496838 0.212628 0.0393838
-0.495197 0.835293 -0.380554
-0.190167 -0.0685115 -0.385814
-0.728758 0.717012 -0.340024
-0.0227279 0.386492 -0.248031
-0.115122 0.0377574 -0.432437
-0.645495 0.375849 -0.0260809
-0.411858 0.84796 -0.470329
-0.685693 0.503896 -0.0961684
-0.726711 0.453303 -0.0604697
-0.710413 0.666514 -0.128436
-0.541179 0.154882 -0.0501624
-0.454864 0.488435 -0.0575373
-0.162715 0.405438 -0.0280037
-0.39131 0.5018 -0.0491089
-0.22224 -0.0797701 -0.451259
-0.141213 0.341173 -0.00704678
-0.0642392 0.348378 -0.404129
-0.478841 0.565581 -0.319785
-0.286896 -0.051254 -0.125926
-0.412487 -0.0557046 -0.17871
-0.0890899 0.161015 -0.449222
-0.00545243 0.177886 -0.169026
0.0106173 0.0258217 -0.35576
-0.237098 0.427883 -0.464915
-0.110245 0.05445 -0.0577116
-0.685142 0.6746 -0.211931
-0.357378 0.176765 0.0818865
-0.640504 0.85213 -0.298347
-0.463555 0.339769 0.0444993
-0.347377 -0.0556525 -0.188721
-0.492041 0.187138 0.026006
-0.345182 0.127568 0.0739188
-0.0679948 0.0212911 -0.373824
-0.110419 0.186004 -0.0323642
-0.329212 0.388876 -0.00348152
-0.643052 0.598147 -0.249981
-0.58908 0.0418334 -0.0524698
-0.601258 0.753815 -0.376366
-0.483602 0.83304 -0.441825
-0.0500663 0.0345126 -0.0996856
-0.499458 0.311201 0.0359868
-0.84819 0.749873 -0.0731424
-0.674238 0.651097 -0.266165
-0.534065 0.837484 -0.439778
-0.844182 0.607316 0.0348391
-0.620188 0.155399 -0.0319115
-0.0251495 -0.0175142 -0.333383
-0.336351 0.100372 0.0665138
-0.394449 -0.036294 0.023967
-0.247247 0.27413 0.0581375
-0.435335 0.351551 0.0465984
-0.402605 0.454503 -0.0260268
-0.428926 0.854687 -0.426204
-0.18102 -0.0683833 -0.359637
-0.301325 0.602703 -0.183507
-0.392914 0.260941 0.0826957
-0.682985 0.429818 -0.0485941
-0.0237234 0.375137 -0.313433
-0.200621 0.445387 -0.0443939
-0.230366 0.163553 0.0493585
-0.0676803 0.15857 -0.427592
-0.078344 0.337215 -0.427506
-0.27182 -0.0120041 -0.505543
-0.316814 0.552768 -0.394343
-0.316125 -0.0760126 -0.306104
-0.204278 0.502904 -0.0724814
-0.454331 -0.0545409 -0.128166
-0.0774728 -0.0506472 -0.160734
-0.293752 0.376614 -0.492942
-0.493988 0.405592 -0.0201782
-0.720138 0.480112 -0.0753837
-0.710916 0.727748 -0.14869
-0.609132 0.583435 -0.241761
-0.222269 0.151625 0.0438263
-0.320604 -0.0494233 -0.103131
-0.222263 -0.0806735 -0.109408
-0.416672 0.919836 -0.527283
0.00714016 0.000262008 -0.333587
-0.451603 0.560559 -0.142581
-0.30436 0.305805 -0.566353
-0.419924 0.581258 -0.320097
-0.246198 0.171268 -0.553077
-0.0811943 0.43645 -0.377962
-0.140354 0.523795 -0.342847
-0.474801 0.377783 -0.500271
-0.462373 0.0929969 0.0245699
-0.374774 0.502858 -0.439247
-0.223641 0.309927 0.0411804
-0.206487 -0.0802629 -0.137047
-0.608413 0.908068 -0.365125
-0.515159 0.247559 0.032748
-0.441618 0.47986 -0.0488385
-0.410769 0.285751 0.0774219
-0.302189 -0.0829689 -0.311136
-0.846045 0.634979 0.0262984
-0.43976 -0.0542304 -0.129167
-0.499057 0.553266 -0.172405
-0.625039 0.197319 -0.025504
-0.0229923 0.379977 -0.215997
-0.587149 0.0887807 -0.0452672
-0.0632077 0.3725 -0.0971378
-0.209942 0.552161 -0.367056
-0.390206 -0.0781798 0.0126843
-0.142122 0.188312 -0.0104097
-0.636424 0.75095 -0.278924
-0.0604897 0.403786 -0.375681
-0.255377 -0.0817591 -0.0608162
-0.689913 0.74111 -0.235246
-0.421715 0.30764 0.074774
-0.192412 0.123404 -0.526021
-0.333168 0.267278 0.0803462
-0.539563 0.532474 -0.143426
-0.137926 0.537996 -0.293458
-0.103549 0.204708 -0.0290352
-0.219274 0.118951 0.0328301
-0.198221 0.541689 -0.37477
-0.751776 0.757049 -0.0962545
-0.677587 0.643558 -0.190596
-0.257697 -0.0849398 -0.442388
-0.241767 0.240008 0.0569397
-0.48064 -0.0557827 -0.138705
-0.795958 0.439609 -0.0563055
-0.252161 -0.0847014 -0.343459
-0.0731704 0.364928 -0.0784222
-0.0145378 0.231321 -0.344517
-0.807057 0.480247 0.00714417
-0.678051 0.613519 -0.134347
-0.355151 0.539951 -0.0729421
-0.421429 0.840242 -0.45731
-0.671315 0.756687 -0.254632
-0.295386 0.293916 -0.565824
-0.345246 0.490362 -0.452384
-0.324766 0.27546 0.0799537
-0.59148 0.122687 -0.034315
-0.284713 0.52067 -0.0655031
-0.451709 0.902432 -0.494621
-0.0194711 0.379388 -0.273638
-0.222026 -0.0496236 -0.013993
-0.840212 0.769908 -0.115717
-0.0110707 0.184766 -0.320726
-0.0527903 0.359689 -0.386154
-0.575127 0.0379977 -0.0564097
-0.625943 0.734304 -0.35889
-0.235202 0.594714 -0.200344
-0.65014 0.587421 -0.318603
0.0109338 0.0518682 -0.365047
-0.752992 0.768845 -0.127294
-0.156201 0.301425 -0.496381
-0.466673 0.497983 -0.0673418
-0.383284 0.469767 -0.47109
-0.0537618 0.0192661 -0.372715
-0.344383 0.550977 -0.0851541
-0.173282 0.56544 -0.187187
-0.232103 0.0401629 0.016518
-0.111389 0.190903 -0.475212
-0.464334 -0.0808497 -0.00191521
-0.343337 0.358964 -0.544132
-0.0412052 0.385621 -0.145962
-0.6243 0.556291 -0.391787
-0.631365 0.525415 -0.124268
-0.0503687 0.200696 -0.08645
-0.0841346 0.449167 -0.370351
-0.413164 0.46474 -0.0325524
0.01784 0.0269394 -0.125944
-0.310465 0.573857 -0.367335
-0.037029 0.394638 -0.170696
-0.290814 0.606964 -0.255289
-0.294882 0.60465 -0.283401
-0.135853 0.542218 -0.247624
-0.0420264 0.410724 -0.174955
-0.401713 0.563956 -0.113712
-0.556778 0.0464342 -0.0632438
-0.0954092 -0.0601392 -0.170979
-0.611914 0.585214 -0.257591
-0.610978 0.581053 -0.22835
0.0250226 0.0491161 -0.118844
0.0371084 0.0601044 -0.122171
-0.0189023 0.180636 -0.338875
-0.140993 0.536229 -0.308237
-0.143925 0.534226 -0.321569
-0.341887 0.583173 -0.351461
-0.529572 0.52995 -0.390767
-0.292949 0.601416 -0.301554
-0.0874174 0.0535887 -0.0827065
-0.744784 0.399419 -0.0281359
-0.158342 0.55702 -0.193624
-0.35596 0.584691 -0.347423
-0.592275 0.549717 -0.146951
-0.370385 0.428122 -0.0153571
-0.418745 0.5635 -0.120765
-0.75816 0.614871 -0.0571467
-0.208855 0.489102 -0.0648401
-0.74457 0.513706 -0.0482797
-0.283665 0.605894 -0.211126
-0.296652 0.606303 -0.208799
-0.172143 -0.0668851 -0.0953391
-0.167147 -0.0496417 -0.0550957
-0.503251 0.784702 -0.381756
0.0179321 0.017882 -0.13358
-0.135296 0.495259 -0.376662
0.0136197 0.0726108 -0.366403
0.019222 0.0598179 -0.363068
0.0141205 0.102936 -0.35756
-0.449574 0.843763 -0.406851
-0.678692 0.254003 -0.013981
-0.418462 0.522415 -0.41984
-0.432509 0.523581 -0.412844
-0.099994 0.170916 -0.0395408
-0.0820635 0.155075 -0.442129
-0.00726911 0.252184 -0.168375
-0.215334 0.273429 -0.535934
-0.603487 0.911591 -0.378341
-0.384544 0.380103 -0.506025
-0.449835 0.522195 -0.407586
0.0295492 0.123744 -0.120715
-0.434123 0.580529 -0.173286
-0.491528 0.0792947 -0.0200119
-0.432293 0.982851 -0.492738
-0.223296 0.177648 0.0480285
-0.163952 0.506878 -0.39399
-0.0682932 0.460435 -0.175269
-0.201963 0.27366 -0.528911
-0.204791 0.581953 -0.198554
-0.414308 0.578143 -0.334903
-0.191912 0.507455 -0.078322
-0.0371132 0.385775 -0.157389
-0.854951 0.67098 0.00937346
-0.618197 0.555868 -0.163291
-0.134841 0.000668608 -0.408858
-0.631603 0.738386 -0.287707
-0.105831 0.156513 -0.462243
-0.129073 -0.0704143 -0.174674
-0.734072 0.540978 -0.0441175
-0.548875 0.833935 -0.435978
-0.234268 0.13174 -0.542962
-0.621802 0.828525 -0.407778
-0.720468 0.811862 -0.293604
-0.0899632 0.448013 -0.380212
-0.716807 0.634801 -0.100329
-0.326837 0.582908 -0.12839
-0.296478 0.593678 -0.330044
-0.0421947 0.358479 -0.371261
-0.072217 0.428779 -0.369911
-0.132286 -0.00101988 -0.0678626
-0.0608322 0.4497 -0.178901
-0.401563 0.935166 -0.510144
-0.429194 0.584406 -0.183407
0.042274 0.114443 -0.121129
-0.75425 0.764769 -0.111591
-0.45522 0.360111 0.0196546
-0.35214 0.364554 -0.535988
-0.30867 0.598692 -0.165559
-0.0610085 0.19813 -0.0720728
-0.753036 0.565358 -0.0353666
-0.362209 0.125561 0.0712869
-0.790351 0.428646 -0.0499641
-0.0657915 0.41472 -0.373738
-0.187537 -0.0557827 -0.0328709
-0.0924108 -0.0680649 -0.294549
-0.431463 0.588963 -0.232826
-0.419378 0.591974 -0.243308
-0.526688 0.867398 -0.38985
-0.368895 -0.0540382 -0.162671
-0.509785 0.123412 -0.0400715
-0.511089 0.00964386 0.0266049
-0.53609 0.927851 -0.442063
-0.451585 0.125679 0.0424243
-0.255446 0.250009 -0.555635
-0.518023 0.899492 -0.461175
-0.470842 0.843681 -0.451938
-0.460218 0.385433 -0.498592
-0.127126 0.0544019 -0.0474825
-0.593338 0.86054 -0.319354
-0.572405 -0.0422868 0.0172391
-0.858381 0.720622 -0.0327447
-0.567983 0.574782 -0.25279
-0.462111 0.931381 -0.496572
-0.161968 0.497075 -0.402402
-0.788052 0.777217 -0.260465
-0.0983656 0.0506885 -0.071536
-0.156958 0.132067 -0.500229
-0.150659 0.179765 -0.00306891
-0.219144 0.0181344 -0.0087513
-0.23969 0.25251 0.0535927
0.00867242 0.0381279 -0.361931
-0.398146 -0.0551077 -0.171704
-0.490226 0.564729 -0.313826
-0.248197 -0.0817871 -0.0459342
-0.103165 -0.0769139 -0.266364
-0.0569845 0.350956 -0.394805
-0.740397 0.315798 -0.00675235
-0.21661 0.0208364 -0.508499
-0.132364 0.539402 -0.236648
-0.303707 -0.0766115 -0.323806
0.00928934 0.168869 -0.162472
0.028015 0.0202075 -0.141922
-0.275052 0.240839 -0.56723
-0.745603 0.529455 -0.0406384
-0.778227 0.397406 -0.0311183
-0.540106 0.495089 -0.433823
-0.0415557 0.377062 -0.137716
-0.280905 0.337141 0.0496009
-0.148848 0.388996 -0.0271284
-0.16348 0.289793 -0.501949
-0.559134 0.563472 -0.192711
-0.341827 0.604304 -0.2193
-0.520835 0.550394 -0.179992
-0.407917 0.594856 -0.230787
-0.0545189 0.438 -0.17711
-0.264285 0.229128 -0.563236
-0.400588 0.513081 -0.432128
0.0311456 0.0680461 -0.11624
-0.178876 0.490672 -0.418356
-0.294471 0.598483 -0.315304
-0.0123086 0.301166 -0.166284
-0.127064 0.241542 -0.484742
-0.715355 0.689037 -0.124761
-0.545133 0.19966 -0.0392904
-0.430937 0.576308 -0.32599
-0.421935 0.358791 0.0406937
-0.747294 0.685912 -0.0895065
-0.738256 0.681075 -0.0994011
-0.510162 0.480403 -0.0761408
-0.605288 0.74267 -0.308906
-0.32362 0.484064 -0.463427
0.0440887 0.00477066 -0.28035
-0.231318 -0.073571 -0.0205267
-0.356334 0.416138 -0.0150206
-0.117213 0.0262444 -0.421022
-0.622658 0.817194 -0.300784
-0.640324 0.802026 -0.285213
-0.224193 -0.0218887 -0.0122945
-0.0230424 0.384215 -0.232492
-0.0209173 0.383336 -0.260892
-0.515469 0.543546 -0.365252
-0.28589 0.455228 -0.470964
-0.300252 0.41763 -0.0248471
-0.399698 0.492939 -0.0449848
-0.30176 -0.0475025 -0.00141447
-0.145367 0.539003 -0.15656
-0.221638 0.39715 -0.483717
-0.204847 0.387083 -0.486425
-0.506855 0.0650697 -0.0433243
-0.425344 0.564281 -0.358568
-0.246761 0.155563 -0.547757
-0.545558 0.930922 -0.360965
-0.218086 -0.0806294 -0.124005
-0.0134042 0.197359 -0.154318
-0.342222 0.387127 0.00184234
-0.243814 0.457798 -0.0473663
-0.279896 0.391169 -0.48063
-0.253723 0.286731 0.0621734
-0.610868 0.411235 -0.045155
-0.669056 0.597444 -0.137077
-0.531882 0.311772 -0.0104638
-0.465476 0.200606 0.0581715
-0.607479 0.117139 -0.0341688
-0.230599 -0.0834876 -0.439812
-0.647158 0.799716 -0.39111
-0.378425 0.250944 0.0807208
-0.134833 0.5408 -0.26126
-0.456398 0.570129 -0.321737
-0.656315 0.351004 -0.0193249
-0.649573 0.845061 -0.294471
-0.672427 0.835455 -0.291813
-0.517496 0.566262 -0.244628
-0.225862 0.194503 0.0528416
-0.103475 -0.0723091 -0.207711
-0.534295 0.92699 -0.368711
-0.22161 0.486468 -0.0617055
-0.379747 0.122278 0.0708282
-0.430748 0.555277 -0.369067
-0.371451 0.524492 -0.062737
-0.404137 0.91331 -0.490082
-0.0541684 -0.0502406 -0.310303
-0.514344 0.479333 -0.443457
-0.317782 -0.0566861 -0.160373
-0.27734 0.578223 -0.360519
-0.301345 0.580599 -0.357318
-0.0768098 0.47298 -0.172968
-0.325203 0.58308 -0.3503
-0.111637 -0.0586029 -0.156584
-0.110554 -0.0640349 -0.170039
-0.444817 0.105614 0.0428449
-0.470789 0.165724 0.0436761
-0.374904 0.584743 -0.340964
0.00251734 0.109888 -0.352613
0.0105572 0.120866 -0.346059
-0.81817 0.612504 0.014485
-0.358193 0.258207 0.0790864
-0.12555 0.48764 -0.377452
-0.0400395 0.169514 -0.391452
-0.126848 -0.0499421 -0.129992
-0.567528 0.358577 -0.0147001
-0.564938 0.342221 -0.0123346
-0.123126 0.527046 -0.180946
-0.027515 0.386687 -0.205041
-0.0481475 0.425045 -0.175684
-0.573539 -0.0540462 0.016524
-0.0385793 -0.0290072 -0.147708
-0.0231345 -0.0174541 -0.142543
-0.113428 0.0231137 -0.399602
-0.461259 0.510996 -0.421054
-0.255692 -0.011237 -0.505903
-0.23419 0.256631 -0.54457
-0.532438 -0.0799164 0.0214373
-0.693496 0.820683 -0.352777
-0.30968 0.0263966 0.0407578
-0.11083 0.0831844 -0.447715
-0.809866 0.491509 0.026685
-0.106554 0.124431 -0.462027
-0.311242 -0.0849117 -0.265482
-0.0209633 0.314422 -0.355992
-0.596397 0.914678 -0.365552
0.00647117 0.0142887 -0.350392
-0.000935761 0.00564195 -0.347341
-0.520847 0.427595 -0.0392724
-0.172749 0.422027 -0.0370871
-0.521132 0.161416 -0.0412212
-0.569377 0.51109 -0.107581
-0.0970617 -0.0757662 -0.236249
-0.483977 0.870959 -0.415624
-0.313167 0.536456 -0.0740197
-0.773552 0.613277 -0.0470939
0.00805952 0.0260721 -0.118117
0.00780114 0.0120734 -0.129786
-0.1024 0.221543 -0.0249532
-0.631407 0.891432 -0.352208
0.0501597 0.00414174 -0.215174
-0.515666 0.818833 -0.430772
0.0474236 0.00173819 -0.251081
-0.459417 0.364806 0.00345873
-0.44647 0.816197 -0.423654
-0.441382 0.402338 -0.493459
-0.731633 0.797527 -0.317826
-0.338586 0.0259319 0.040886
-0.695006 0.725629 -0.214012
-0.606985 0.752038 -0.301502
-0.191563 0.320393 0.0136177
-0.699287 0.269614 -0.00736926
-0.524244 0.279332 0.0136398
-0.553003 0.504645 -0.42383
0.0346768 0.136087 -0.12831
0.0228954 0.145871 -0.133582
-0.31262 0.582137 -0.353042
-0.402066 0.0222324 0.025347
-0.206133 -0.0075295 -0.493627
-0.743702 0.717805 -0.341226
-0.729299 0.675553 -0.107255
-0.163628 0.535745 -0.122559
0.0312858 0.00948362 -0.157595
-0.446129 0.88459 -0.487664
-0.624807 0.866699 -0.307985
-0.46979 0.578772 -0.239344
0.000159857 0.199977 -0.194932
-0.231072 0.562556 -0.36289
-0.0212798 0.299987 -0.363237
-0.0175263 0.289942 -0.355852
-0.0143576 0.196444 -0.334028
-0.569445 0.554843 -0.358638
-0.158985 0.00475464 -0.457981
-0.194469 0.5772 -0.199377
-0.311296 0.320371 -0.564416
-0.569812 0.0251488 -0.0503427
-0.0835978 0.368872 -0.0672236
-0.0933442 0.362693 -0.0538759
-0.418166 0.41067 -0.494418
-0.102742 0.109694 -0.0409328
0.0203817 0.0822711 -0.363163
-0.399889 -0.018682 0.0227332
-0.48607 -0.0053683 0.0464081
-0.5794 0.54232 -0.139458
-0.0281199 0.0325216 -0.0975103
-0.186209 0.287586 -0.516307
-0.141053 0.287047 -0.490577
-0.603968 0.548459 -0.143979
-0.213676 -0.0450168 -0.479805
-0.772944 0.386476 -0.0279376
-0.241777 0.105864 -0.537776
-0.160772 0.527771 -0.114606
-0.20835 0.45292 -0.447755
-0.741072 0.48415 -0.0698034
-0.586452 0.847889 -0.335886
-0.348831 0.500617 -0.443389
-0.416411 0.324595 -0.584397
-0.015355 0.171897 -0.326444
-0.250152 -0.0805573 -0.142058
-0.221285 0.0622816 -0.530684
-0.0431561 -0.0353806 -0.155881
-0.062026 -0.0449047 -0.159908
-0.852222 0.730023 -0.0435206
-0.425012 0.956209 -0.489309
-0.214483 0.0574665 0.0139122
-0.21644 0.0440186 0.00783118
-0.0175603 0.252424 -0.34823
-0.678845 0.652717 -0.204084
-0.109256 0.106355 -0.460104
-0.130954 0.346043 -0.0170676
-0.429244 0.565384 -0.131226
-0.441889 0.568819 -0.149503
-0.460472 0.851463 -0.410749
-0.293736 0.142642 0.0692318
-0.435227 0.915101 -0.463425
-0.446055 0.942095 -0.463543
-0.575923 0.419397 -0.0473483
-0.482907 0.386927 -0.0133
-0.452999 0.396731 -0.49565
-0.147614 0.372556 -0.01871
-0.465181 0.802032 -0.37665
-0.496479 0.567736 -0.291593
-0.321469 0.0499213 0.0535707
-0.826351 0.780532 -0.156485
-0.0759605 0.164056 -0.435814
-0.45221 0.346111 0.0450762
-0.406645 0.00941953 0.0147794
-0.146543 0.510844 -0.37062
-0.286071 -0.0840264 -0.192192
-0.785893 0.380624 -0.0286667
-0.0213098 0.184933 -0.349703
-0.490887 0.506493 -0.0861075
-0.483212 0.501346 -0.0772705
-0.481892 0.516544 -0.0907664
-0.745084 0.470873 -0.0702481
-0.677455 0.6967 -0.264855
-0.33402 -0.063438 -0.0607721
-0.784354 0.766768 -0.106181
-0.115659 0.166289 -0.472792
-0.274383 0.320224 0.0565151
-0.28722 0.233815 -0.570156
-0.421216 0.591689 -0.225411
-0.351159 0.164709 0.0763283
-0.668177 0.734336 -0.257609
-0.40358 0.368091 0.0347029
-0.381193 0.376417 0.0277205
-0.876812 0.717517 -0.0335499
-0.315428 0.593257 -0.148774
-0.254418 0.423206 -0.470563
-0.58905 0.800195 -0.306379
-0.714591 0.648783 -0.344783
-0.0214541 0.377431 -0.29615
-0.120614 0.189545 -0.0233228
-0.00697868 0.224409 -0.166396
-0.142323 0.54316 -0.1826
-0.14899 0.549701 -0.189234
-0.140219 0.545317 -0.226551
-0.131815 0.535436 -0.187625
-0.631677 0.870254 -0.391937
-0.108412 0.514087 -0.186263
-0.121247 0.355276 -0.0276913
-0.0678566 0.199366 -0.0617716
-0.0771683 0.195136 -0.0523557
-0.616749 0.763513 -0.385235
-0.637484 0.73822 -0.363773
-0.422432 0.104468 0.0546924
-0.177268 0.335779 -0.492277
-0.0880243 0.338349 -0.436939
-0.365081 0.193309 0.0872144
0.0150538 0.156921 -0.14455
-0.782007 0.510195 0.000334114
-0.439754 0.561899 -0.134102
-0.292244 0.35249 0.0453125
-0.369618 0.206673 0.0869139
-0.487382 0.0199811 0.0165541
-0.66087 0.553895 -0.134599
-0.174216 -0.0550877 -0.368827
-0.184713 0.537257 -0.369949
-0.166426 0.523304 -0.374589
-0.645399 0.564924 -0.16802
-0.171492 0.177984 0.0192781
-0.639759 0.457183 -0.0610064
-0.158008 0.0516339 -0.0267839
-0.0738534 0.345576 -0.416475
-0.766456 0.77374 -0.295278
-0.0307958 0.377273 -0.166737
-0.277975 0.441916 -0.470775
-0.00971672 0.283432 -0.166664
-0.381946 0.437654 -0.0173981
-0.47899 0.95396 -0.482214
-0.814775 0.518669 0.0451483
-0.339011 0.392331 -0.0113591
-0.494667 0.872734 -0.46423
-0.504077 0.866194 -0.458906
-0.687776 0.553361 -0.0910808
-0.852067 0.694859 -0.00817244
-0.31784 -0.0763791 -0.192078
-0.675494 0.660811 -0.239236
-0.400732 0.330139 -0.579528
-0.377466 0.344168 -0.56611
-0.878155 0.611643 0.0441027
-0.592335 0.109143 -0.0373555
-0.327356 0.529591 -0.417893
-0.216816 0.133288 0.0363333
-0.37484 -0.0547833 -0.180679
-0.362333 -0.0547412 -0.183932
-0.0176164 0.333498 -0.163424
-0.480506 -0.0305515 0.053088
0.0490881 0.00200258 -0.231634
-0.690017 0.70708 -0.335616
-0.345731 0.145837 0.0743534
-0.808967 0.47278 -0.00649998
-0.41555 0.0205039 0.0208063
-0.296148 0.607476 -0.236351
-0.0250233 0.180961 -0.360388
-0.295947 -0.0763431 -0.333995
-0.558631 0.915271 -0.430011
-0.520721 0.818676 -0.346284
-0.014634 -0.00927007 -0.137279
0.000274026 0.0032344 -0.133213
-0.407107 0.236929 0.0825435
-0.111831 0.476487 -0.378517
-0.0175924 0.277798 -0.355319
-0.792018 0.496547 0.00706004
-0.801598 0.490466 0.0154845
-0.264679 0.0377674 0.036818
-0.706868 0.738414 -0.162132
-0.236958 -0.0804411 -0.0919181
-0.837237 0.580481 0.041565
-0.244736 0.484331 -0.0561513
-0.101957 0.248352 -0.0249532
-0.471278 -0.0649623 -0.0307698
-0.556163 -0.00657609 0.00755477
-0.486889 -0.0651105 -0.0339124
-0.284002 -0.0624886 -0.36789
-0.718766 0.299606 -0.00907978
-0.680834 0.627338 -0.147502
-0.114237 0.282767 -0.0215742
-0.306443 -0.0507173 -0.132338
-0.302747 0.0905934 -0.555132
-0.287277 0.0946113 -0.547611
-0.102866 -0.0734648 -0.28691
-0.628777 0.844633 -0.402495
-0.298317 0.22784 -0.573367
-0.246735 0.413142 -0.471276
-0.796272 0.77895 -0.247093
-0.576672 0.239323 -0.0280077
-0.591013 0.319648 -0.0173039
-0.571558 0.135159 -0.0404481
-0.194538 -0.0811201 -0.165016
-0.0427675 0.371748 -0.366197
-0.717065 0.763879 -0.344205
-0.615361 0.290545 -0.0227219
0.0342262 -0.000811577 -0.294195
0.019214 0.00209471 -0.323766
-0.218643 0.093083 0.0247642
-0.211378 0.0728372 0.0185069
-0.469482 0.802665 -0.404518
-0.56214 0.810126 -0.323286
-0.543671 0.543346 -0.366371
-0.136688 0.525788 -0.330627
-0.147923 0.520492 -0.359151
-0.613168 0.542352 -0.137604
-0.142092 -0.0656733 -0.332243
-0.0182353 0.346241 -0.171193
-0.113079 0.0681883 -0.443828
-0.108519 0.0956749 -0.454459
-0.272401 0.511481 -0.0609484
-0.101438 0.504853 -0.174077
-0.0818913 0.481965 -0.180717
-0.191375 -0.0730142 -0.235873
-0.193825 -0.074961 -0.250889
-0.472869 -0.05663 -0.166652
-0.865559 0.61636 0.0411183
-0.543082 0.878398 -0.379703
-0.393952 -0.0754498 -0.0327267
-0.799431 0.712017 -0.0412533
-0.247968 0.598874 -0.201151
-0.178822 0.126308 -0.519543
-0.40225 -0.00469731 0.0166883
-0.201103 -0.076932 -0.189364
-0.502416 0.22662 0.0432975
-0.515433 0.291949 0.0254071
-0.721347 0.731992 -0.342125
-0.700044 0.788083 -0.256389
-0.0991788 0.139057 -0.0406183
-0.522612 -0.079662 0.0298196
-0.347584 -0.0579099 -0.206213
-0.29346 0.605756 -0.272114
-0.403552 0.11154 0.0647452
0.0446075 0.00484878 -0.18794
0.0401429 0.00756279 -0.173306
-0.52024 0.515228 -0.109784
-0.0558829 0.164519 -0.415077
-0.0456658 0.165308 -0.400794
-0.336944 0.363548 -0.534225
-0.141724 0.30344 -0.489277
-0.163862 0.317969 -0.494276
-0.109522 0.316673 -0.465367
-0.305758 0.374046 -0.49976
-0.000306832 0.189205 -0.299757
-0.757022 0.732261 -0.0723612
-0.433366 0.946821 -0.521983
-0.650915 0.813835 -0.389407
-0.41272 0.852753 -0.436116
-0.704294 0.713104 -0.339512
-0.465894 0.451707 -0.47419
-0.482457 0.460552 -0.466972
-0.424185 0.865886 -0.485866
-0.664912 0.61365 -0.295441
-0.46316 0.822989 -0.434486
-0.519824 0.780274 -0.385255
-0.485487 0.798611 -0.403136
-0.414398 0.427913 -0.487326
-0.790801 0.375654 -0.0291017
-0.702415 0.234183 -0.0167763
-0.704081 0.236132 -0.0160676
-0.724753 0.778951 -0.335767
-0.724753 0.778951 -0.335767
-0.508489 -0.0544181 -0.10042
-0.835759 0.782224 -0.194947
-0.595387 0.0400345 -0.0510849
-0.568846 -0.0801777 -0.00963262
-0.654628 0.174966 -0.0351352
-0.842443 0.474392 0.0216519
-0.810119 0.779212 -0.250262
-0.618677 0.109506 -0.0367234
-0.883811 0.718758 -0.0385111
-0.434785 0.968196 -0.520159
-0.434785 0.968196 -0.520159
-0.535997 0.916475 -0.446796
-0.535997 0.916475 -0.446796
-0.618902 0.110019 -0.0366051
-0.883504 0.609624 0.0441713
-0.291414 -0.0849933 -0.450912
-0.691577 0.567954 -0.370593
-0.3088 0.0834612 -0.555766
-0.628344 0.52102 -0.423543
-0.475759 0.375142 -0.501078
-0.477325 0.377167 -0.500275
-0.584355 0.480954 -0.447068
-0.626482 0.519132 -0.424199
-0.708503 0.593399 -0.361992
-0.416923 0.324555 -0.584448
-0.30963 0.0866954 -0.556993
-0.416515 0.323942 -0.584741
-0.534648 0.436801 -0.474281
-0.288925 -0.0151543 -0.505941
-0.800604 0.205675 -0.440551
-0.959298 0.502009 -0.00411245
-0.818199 0.674363 -0.389491
-0.519664 0.192416 -0.581237
-0.67693 0.122565 -0.0749791
-0.946917 0.422197 -0.204715
-0.795403 0.844955 -0.745545
-0.927877 0.249386 -0.170188
-0.571446 -0.0817691 -0.0711674
-0.970491 0.478817 -0.256461
-0.556125 0.234852 -0.547779
-0.837072 0.392561 -0.0508254
-0.880568 0.924899 -0.674314
-0.994018 0.583147 -0.171131
-0.616034 -0.080357 -0.357594
-0.587574 -0.0833074 -0.14886
-0.809077 0.93508 -0.747274
-0.588183 -0.0781177 -0.2422
-0.957844 0.575313 -0.308185
-0.769146 -0.0520152 -0.159153
-0.451233 0.0294371 -0.547086
-0.702065 0.0307009 -0.136023
-0.766586 0.776107 -0.520631
-0.735885 0.0147734 -0.265679
-0.782329 -0.0233629 -0.11323
-0.548112 0.212001 -0.558209
-0.823949 -0.0733827 -0.351333
-0.437024 0.258229 -0.607029
-0.715935 0.236112 -0.472865
-0.527315 -0.0609424 -0.173683
-0.873676 0.897839 -0.658691
-0.878066 0.16008 -0.228654
-0.86989 0.155159 -0.276378
-0.453432 -0.0885211 -0.500838
-0.773228 -0.0706567 -0.387454
-0.91742 0.50016 -0.343195
-0.581295 0.251773 -0.488816
-0.905302 0.680086 -0.335307
-0.796885 0.388826 -0.444671
-0.735897 0.0766147 -0.29623
-0.930262 0.696945 -0.287212
-0.744153 -0.0604536 0.00142573
-0.85715 0.938742 -0.707363
-0.398397 0.115704 -0.581483
-0.562072 0.286328 -0.509509
-0.619605 -0.00271839 -0.457618
-0.862835 0.159489 -0.173733
-0.724891 0.059838 -0.271645
-0.418576 -0.0562594 -0.197392
-0.590905 -0.0533351 -0.00736125
-0.866445 0.943809 -0.691752
-0.886402 0.895638 -0.61994
-0.603359 0.41988 -0.472053
-0.530291 0.31198 -0.546317
-0.756031 -0.0356069 -0.013292
-0.525362 -0.0307458 -0.536905
-0.965732 0.640948 -0.238494
-0.713894 0.250283 -0.479218
-0.918877 0.511659 0.0195585
-0.854809 0.723702 -0.462513
-0.851725 0.777101 -0.519972
-0.846491 0.44881 -0.0433584
-0.889366 0.532652 -0.370137
-0.616332 0.226686 -0.463967
-0.819886 0.858814 -0.487312
-0.601412 -0.0840665 -0.440395
-0.688355 0.112764 -0.0921404
-0.662236 0.434533 -0.464536
-0.86483 0.497232 -0.373077
-0.967747 0.649649 -0.224898
-0.397391 0.258123 -0.598911
-0.937191 0.265834 -0.176176
-0.840671 0.173952 -0.374265
-0.829118 0.371128 -0.435395
-0.975748 0.682047 -0.174981
-0.871464 0.816115 -0.534055
-0.78154 -0.0886993 -0.376072
-0.710087 -0.00752349 -0.173845
-0.918685 0.246045 -0.326581
-0.762911 -0.0128834 -0.355762
-0.845991 0.90499 -0.60127
-0.762574 0.869984 -0.740287
-0.91587 0.420028 -0.343335
-0.711593 -0.0899171 -0.292046
-0.918025 0.51202 -0.34806
-0.519894 -0.0617095 -0.231366
-0.754046 0.103987 -0.338761
-0.863964 0.772144 -0.321589
-0.528727 -0.00590309 -0.525446
-0.742134 0.013105 -0.330807
-0.805547 0.844498 -0.729549
-0.648502 -0.0456698 -0.463873
-0.666671 0.111232 -0.0669272
-0.849534 0.293449 -0.0404481
-0.824658 0.286553 -0.448479
-0.784162 -0.0185337 -0.0935685
-0.911479 0.76954 -0.182776
-0.84423 0.128045 -0.27217
-0.90826 0.758588 -0.283343
-0.699167 -0.0883708 -0.234959
-0.59565 0.0234462 -0.411706
-0.814861 -0.0636864 -0.241176
-0.853351 0.652176 -0.375957
-0.440983 0.0123879 -0.540334
-0.45474 -0.0052962 -0.527115
-0.745094 -0.0906362 -0.346165
-0.741331 0.0904672 -0.188202
-0.677374 0.136511 -0.0673078
-0.790804 -0.0729781 -0.381373
-0.90082 0.248737 -0.369848
-0.531369 0.00382927 -0.516116
-0.424143 0.247217 -0.60497
-0.605809 0.129635 -0.426889
-0.626808 0.0248623 -0.406769
-0.851377 0.17623 -0.113067
-0.818741 0.234488 -0.443721
-0.832424 0.784197 -0.64485
-0.936756 0.686762 -0.279327
-0.936858 0.239513 -0.203389
-0.440783 0.0946434 -0.580826
-0.801972 0.415279 -0.434041
-0.794111 0.110116 -0.313043
-0.789358 0.830558 -0.745379
-0.348307 -0.0717283 -0.503053
-0.893364 0.443971 -0.0906763
-0.404105 -0.0548133 -0.436359
-0.962304 0.487754 -0.125426
-0.713884 0.42704 -0.460943
-0.744327 0.152753 -0.411205
-0.389718 -0.0547432 -0.26903
-0.705396 0.162349 -0.0578037
-0.763415 0.319533 -0.464098
-0.968712 0.643331 -0.168385
-0.638958 -0.0881505 -0.379294
-0.963121 0.332426 -0.185735
-0.946643 0.41512 -0.268323
-0.360539 -0.0558528 -0.23431
-0.784382 0.715562 -0.466032
-0.970685 0.606713 -0.0921805
-0.781188 0.731195 -0.510256
-0.910274 0.362589 -0.0990787
-0.767712 0.76263 -0.488658
-0.731466 -0.0187841 -0.168255
-0.794662 -0.0828247 -0.226132
-0.813752 0.686455 -0.410815
-0.918448 0.717463 -0.305676
-0.780785 0.346053 -0.458694
-0.656986 0.194074 -0.449172
-0.776058 -0.013993 -0.247578
-0.432525 0.101984 -0.583832
-0.872019 0.162353 -0.188344
-0.940443 0.602996 -0.327692
-0.507816 -0.0586369 -0.186412
-0.889746 0.185399 -0.178193
-0.799549 0.110689 -0.179728
-0.836571 0.80475 -0.373428
-0.520988 0.168514 -0.569229
-0.612823 -0.0856488 -0.430784
-0.984103 0.527625 -0.124813
-0.601004 0.0150358 -0.422492
-0.931832 0.240242 -0.18523
-0.545734 0.112558 -0.477774
-0.829825 0.249059 -0.443439
-0.49289 0.206805 -0.600475
-0.826647 0.913226 -0.717586
-0.479296 0.336979 -0.564316
-0.923147 0.539528 -0.354299
-0.802806 0.106883 -0.195719
-0.75317 -0.0482476 -0.00615747
-0.754709 -0.0906021 -0.353114
-0.607227 -0.0832333 -0.0807376
-0.857181 0.875354 -0.526101
-0.674919 -0.0600771 -0.414118
-0.718918 -0.0900674 -0.259526
-0.612529 0.47468 -0.449184
-0.815821 0.503797 -0.389355
-0.806841 0.796279 -0.383162
-0.837735 0.900389 -0.694778
-0.451347 0.278567 -0.60412
-0.633369 0.112299 -0.421268
-0.475288 0.218644 -0.604707
-0.322907 0.030034 -0.544544
-0.996007 0.575607 -0.195809
-0.759752 0.40251 -0.45891
-0.397219 0.191815 -0.59555
-0.467463 0.0612681 -0.555701
-0.766416 0.0911362 -0.267117
-0.556496 -0.0547352 -0.382567
-0.301263 -0.0601632 -0.42266
-0.485012 0.105906 -0.567911
-0.496704 -0.0662422 -0.4604
-0.346696 -0.0535815 -0.306863
-0.812849 0.876343 -0.718367
-0.812101 0.846758 -0.71354
-0.698864 0.497644 -0.435081
-0.957116 0.649899 -0.0452993
-0.879107 0.844889 -0.510516
-0.52658 0.184939 -0.572035
-0.324273 -0.0498319 -0.504689
-0.96232 0.625924 -0.042437
-0.788444 0.87392 -0.617095
-0.96047 0.606377 -0.0252577
-0.958274 0.387404 -0.19067
-0.73816 0.121245 -0.113682
-0.881343 0.863797 -0.547845
-0.650393 0.0631008 -0.0555664
-0.777542 -0.0287288 -0.367823
-0.803292 0.102351 -0.214092
-0.600203 0.335132 -0.493709
-0.809713 0.270681 -0.0224095
-0.843456 0.834416 -0.42923
-0.803523 0.73597 -0.583506
-0.824556 0.822462 -0.407845
-0.841916 0.762255 -0.608286
-0.464935 0.350231 -0.544809
-0.743871 0.66671 -0.362752
-0.47914 -0.0574552 -0.217626
-0.473958 -0.0567241 -0.253797
-0.401389 -0.0516446 -0.393011
-0.932312 0.24159 -0.289283
-0.976037 0.495826 -0.151202
-0.596525 -0.083083 -0.0693147
-0.493249 -0.0564157 -0.294635
-0.558681 0.259479 -0.535537
-0.660776 -0.082394 -0.0740577
-0.846506 0.89316 -0.568648
-0.9862 0.591593 -0.142254
-0.356949 0.076817 -0.562567
-0.459919 -0.0568203 -0.215663
-0.504724 -0.0584827 -0.241299
-0.789572 -0.0560932 -0.378621
-0.38822 0.0129447 -0.543407
-0.828271 0.191765 -0.0725595
-0.846752 0.197461 -0.082356
-0.834487 0.184732 -0.0842828
-0.766204 0.788604 -0.550888
-0.407905 -0.0624786 -0.444977
-0.86534 0.415253 -0.397782
-0.493597 0.124073 -0.569101
-0.955379 0.358251 -0.282333
-0.951999 0.416937 -0.230837
-0.863073 0.444584 -0.386435
-0.861586 0.45664 -0.38166
-0.798127 -0.0431321 -0.233962
-0.712234 -0.0839683 -0.111148
-0.71222 -0.0834676 -0.0966691
-0.725275 0.177163 -0.0480073
-0.897757 0.440975 -0.10693
-0.807465 0.159341 -0.0942836
-0.77176 0.756601 -0.531169
-0.539948 0.201753 -0.56467
-0.572474 -0.0818011 -0.462962
-0.789879 0.697592 -0.425326
-0.303979 0.0331365 -0.539521
-0.801887 -0.0604616 -0.225521
-0.887017 0.739664 -0.069515
-0.624963 0.314053 -0.489685
-0.994657 0.570324 -0.21253
-0.891087 0.365629 -0.0810781
-0.770065 0.721188 -0.367339
-0.907426 0.273345 -0.372006
-0.863282 0.268995 -0.426242
-0.939345 0.760691 -0.209163
-0.678254 0.0199371 -0.390721
-0.921634 0.242121 -0.31537
-0.768203 0.589776 -0.385055
-0.786159 0.117195 -0.3506
-0.772024 0.7613 -0.318487
-0.821081 0.170181 -0.0907804
-0.917067 0.36625 -0.107509
-0.856769 0.139389 -0.269825
-0.780216 0.729244 -0.497669
-0.765154 0.897072 -0.734471
-0.855344 0.764044 -0.500109
-0.437659 -0.0557447 -0.266584
-0.773084 0.734925 -0.368909
-0.968659 0.611196 -0.0765033
-0.882672 0.208834 -0.371483
-0.636061 -0.0895786 -0.294415
-0.652065 0.419499 -0.473027
-0.390485 -0.055316 -0.230425
-0.809684 0.449916 -0.414837
-0.488938 0.343116 -0.544789
-0.421517 0.109788 -0.585861
-0.648408 0.0489859 -0.055314
-0.408924 0.00742458 -0.539986
-0.67547 -0.00525814 -0.0281439
-0.687021 0.366615 -0.485191
-0.7867 0.937129 -0.720851
-0.792184 0.786799 -0.705117
-0.772679 0.394021 -0.456705
-0.73101 0.144479 -0.402032
-0.746196 0.149432 -0.0753336
-0.867125 0.869968 -0.527387
-0.447449 -0.0554142 -0.303869
-0.822644 0.877425 -0.701266
-0.883756 0.446467 -0.052552
-0.775201 -0.0575594 -0.204122
-0.330496 -0.051216 -0.418338
-0.64616 0.144703 -0.435459
-0.534351 0.0543759 -0.485914
-0.685436 0.178619 -0.436615
-0.870516 0.548656 -0.380418
-0.839101 0.768831 -0.618167
-0.337258 -0.0683673 -0.503358
-0.685793 -0.0898831 -0.315076
-0.84333 0.845344 -0.450481
-0.902916 0.612436 -0.356344
-0.775814 0.923603 -0.724552
-0.768453 0.910536 -0.72862
-0.788316 0.721216 -0.49993
-0.504601 0.201723 -0.593525
-0.773534 -0.0109505 -0.0570847
-0.821793 0.66031 -0.383396
-0.496555 0.0805686 -0.548196
-0.755672 0.469805 -0.435469
-0.730206 0.481248 -0.438167
-0.898736 0.263559 -0.0893743
-0.453925 0.091046 -0.576315
-0.829334 0.784412 -0.331452
-0.767986 0.874705 -0.761733
-0.554259 0.133058 -0.470836
-0.65917 0.298627 -0.483951
-0.77207 0.744927 -0.402571
-0.477898 -0.0534112 -0.408453
-0.974909 0.493983 -0.0342049
-0.9889 0.577212 -0.138204
-0.77055 0.74648 -0.447191
-0.542171 0.170902 -0.53762
-0.596942 -0.0265896 -0.520537
-0.976729 0.712049 -0.208198
-0.509252 -0.0892882 -0.506566
-0.966676 0.622316 -0.0619819
-0.734515 0.541631 -0.387973
-0.802246 0.852196 -0.497112
-0.846506 0.18209 -0.0990686
-0.806431 0.877721 -0.562186
-0.601875 0.0454647 -0.404606
-0.643172 -0.0657775 -0.49315
-0.978104 0.479512 -0.220055
-0.861023 0.81418 -0.548873
-0.808177 0.835549 -0.448917
-0.829671 0.79812 -0.652019
-0.855468 0.20854 -0.0827405
-0.950924 0.701465 -0.0867364
-0.548368 0.171341 -0.524665
-0.608825 -0.0842908 -0.112663
-0.702816 -0.0826784 -0.0408367
-0.688267 -0.0825382 -0.055943
-0.731124 0.598712 -0.371433
-0.949045 0.639313 -0.0224375
-0.7731 0.830033 -0.53872
-0.674234 0.448057 -0.460602
-0.725441 -0.0825623 -0.0253097
-0.539881 -0.0872452 -0.483781
-0.588667 -0.0827706 -0.0540622
-0.598692 -0.0822338 -0.0429618
-0.724035 -0.0904018 -0.338803
-0.683926 0.00724231 -0.390473
-0.826902 0.181077 -0.39416
-0.7827 0.125881 -0.131981
-0.73642 0.0119132 -0.0588112
-0.938443 0.423687 -0.178472
-0.568762 -0.0546971 -0.413533
-0.73529 0.0780889 -0.309603
-0.841701 0.654698 -0.379386
-0.761705 0.211215 -0.0312545
-0.566491 0.169446 -0.469578
-0.80516 -0.07426 -0.227644
-0.609266 0.0220041 -0.40994
-0.847128 0.900844 -0.590662
-0.914382 0.748839 -0.296544
-0.808052 0.194112 -0.426342
-0.63088 0.389244 -0.479891
-0.884382 0.915513 -0.653619
-0.975456 0.617648 -0.249018
-0.871211 0.80351 -0.509631
-0.555905 0.251659 -0.543443
-0.801537 0.949505 -0.747889
-0.801537 0.949505 -0.747889
-0.85867 0.364287 -0.423017
-0.924527 0.765838 -0.189909
-0.914211 0.766708 -0.167456
-0.608677 -0.0297783 -0.511191
-0.710808 -0.0827065 -0.0306737
-0.595902 -0.0859773 -0.453866
-0.834651 0.279444 -0.444957
-0.846235 0.285431 -0.439692
-0.816859 0.700217 -0.459895
-0.650555 -0.0892962 -0.390563
-0.627321 0.0702393 -0.0455777
-0.611067 0.0728472 -0.0442457
-0.869322 0.378136 -0.0665947
-0.53462 0.188488 -0.563839
-0.977283 0.491007 -0.0486823
-0.930495 0.468403 -0.0149484
-0.915324 0.733915 -0.0823319
-0.927561 0.731167 -0.0902857
-0.784469 0.753644 -0.576902
-0.783703 0.677125 -0.383124
-0.744704 0.00402356 -0.344487
-0.53485 -0.0198717 -0.534415
-0.771838 0.729763 -0.424163
-0.772553 0.721343 -0.409593
-0.883166 0.480126 -0.356142
-0.57015 0.150796 -0.448523
-0.973714 0.495912 -0.111557
-0.458978 0.29577 -0.597745
-0.805145 0.775607 -0.695609
-0.609372 0.324393 -0.493701
-0.578537 0.442946 -0.468095
-0.615802 0.0938662 -0.412277
-0.611127 0.0824894 -0.409166
-0.919775 0.52729 -0.353122
-0.646028 0.50942 -0.433034
-0.699836 -0.0900814 -0.318445
-0.513242 0.156114 -0.569369
-0.78656 0.763258 -0.321715
-0.730709 0.0761 -0.269042
-0.624204 0.377479 -0.481107
-0.823162 0.899494 -0.607754
-0.343558 0.144635 -0.572916
-0.349548 0.0188755 -0.543899
-0.976729 0.480048 -0.234715
-0.868694 0.52285 0.0457051
-0.554126 0.0323954 -0.433336
-0.442045 0.00131757 -0.533125
-0.97867 0.696518 -0.202453
-0.786866 -0.0578878 -0.214052
-0.501122 -0.057305 -0.153631
-0.775948 -0.00916992 -0.0731804
-0.912542 0.433079 -0.339584
-0.696142 0.038188 -0.108386
-0.805115 0.787308 -0.709985
-0.841861 -0.0760366 -0.288951
-0.783812 0.766043 -0.600431
-0.827319 0.614721 -0.387354
-0.753757 0.127674 -0.10921
-0.924838 0.648679 0.000173878
-0.644894 0.0198489 -0.0477929
-0.730303 0.000530404 -0.0272246
-0.683267 0.033433 -0.387266
-0.774129 0.505432 -0.401956
-0.657447 -0.0485781 -0.439173
-0.760259 0.480966 -0.427131
-0.767608 0.841282 -0.742923
-0.822791 0.298354 -0.026856
-0.768092 -0.087804 -0.231594
-0.572462 -0.0883328 -0.260733
-0.838638 0.825412 -0.62822
-0.402619 -0.0513963 -0.405315
-0.800118 0.126899 -0.352649
-0.620571 0.251599 -0.473287
-0.893566 0.76265 -0.290251
-0.566757 0.426543 -0.473269
-0.40057 -0.0541744 -0.301924
-0.840682 -0.0692546 -0.271746
-0.599299 -0.0570807 -0.0172518
-0.806506 0.10303 -0.257605
-0.805929 0.101171 -0.238466
-0.368478 0.132824 -0.578673
-0.501365 -0.0887935 -0.490573
-0.810727 0.37568 -0.43968
-0.948318 0.540464 -0.335209
-0.763171 -0.0562574 -0.171956
-0.832421 0.945488 -0.685136
-0.955506 0.672402 -0.0598527
-0.665809 -0.0896728 -0.365474
-0.468043 -0.053926 -0.382856
-0.812498 0.776338 -0.327452
-0.912322 0.330536 -0.099994
-0.526203 -0.0541323 -0.537722
-0.557007 -0.0543807 -0.398395
-0.89324 0.773057 -0.16933
-0.861128 0.863701 -0.624779
-0.332359 -0.0576194 -0.42951
-0.964339 0.637276 -0.25288
-0.79117 0.113549 -0.335386
-0.915795 0.380754 -0.11098
-0.89565 0.349968 -0.393323
-0.962045 0.530461 0.000999096
-0.636646 -0.0285025 -0.47389
-0.680449 -0.0076016 -0.396722
-0.861378 0.835641 -0.449089
-0.841829 0.701225 -0.436495
-0.713354 0.112107 -0.120741
-0.768042 0.820759 -0.550503
-0.692449 0.203087 -0.452601
-0.72839 0.0844423 -0.192903
-0.879743 0.165382 -0.272318
-0.872632 0.161622 -0.288384
-0.641435 -0.0869848 -0.143959
-0.387508 -0.0535494 -0.311787
-0.93371 0.414247 -0.309936
-0.762314 -0.00203138 -0.0517788
-0.808585 0.893941 -0.617055
-0.808248 0.899341 -0.631817
-0.940565 0.641577 -0.011287
-0.922138 0.346976 -0.361164
-0.721922 -0.0875556 -0.162118
-0.652644 -0.0812223 -0.0310923
-0.920491 0.655237 -0.326482
-0.788929 0.193946 -0.437382
-0.556865 0.415265 -0.481411
-0.873331 0.790395 -0.482501
-0.678993 -0.0896547 -0.355069
-0.802783 0.919587 -0.67678
-0.746863 -0.0256062 -0.163203
-0.500205 -0.0536235 -0.41699
-0.954219 0.329118 -0.280503
-0.320291 -0.0861155 -0.467689
-0.687143 0.441824 -0.462485
-0.805073 -0.0747367 -0.374652
-0.979216 0.49216 -0.0710333
-0.558347 0.278012 -0.519413
-0.664011 0.0188074 -0.395751
-0.809008 0.21404 -0.441258
-0.725265 0.418097 -0.460548
-0.975866 0.697035 -0.148145
-0.634046 -0.0883068 -0.404762
-0.963188 0.56495 -0.00653803
-0.775694 0.892908 -0.691928
-0.480826 0.0861488 -0.561345
-0.9132 0.285068 -0.368737
-0.850113 0.173047 -0.363599
-0.955147 0.716025 -0.114397
-0.583183 0.198907 -0.462143
-0.945124 0.279955 -0.178035
-0.656399 0.459029 -0.453802
-0.718954 0.0879995 -0.173809
-0.833136 -0.0736912 -0.332585
-0.646781 -0.0793395 -0.492179
-0.607195 0.00230102 -0.0407706
-0.966892 0.550723 -0.00575488
-0.635226 -0.0382268 -0.487654
-0.913839 0.648433 -0.335199
-0.939409 0.477318 -0.00829663
-0.704901 0.023268 -0.0879082
-0.977523 0.49085 -0.083071
-0.714738 0.0194003 -0.0780476
-0.724462 0.0169887 -0.0678265
-0.769426 0.13675 -0.102045
-0.912557 0.652267 0.00749669
-0.586308 -0.0775268 -0.444519
-0.584918 -0.0839243 -0.457662
-0.583516 -0.058663 -0.359507
-0.599548 -0.0757622 -0.338686
-0.840259 -0.0775669 -0.306637
-0.544252 -0.0713758 -0.154326
-0.811058 0.90401 -0.732995
-0.892838 0.775585 -0.195487
-0.51568 -0.0582664 -0.160185
-0.513615 -0.0573571 -0.144534
-0.378299 0.125261 -0.580377
-0.636344 -0.0870128 -0.281512
-0.965094 0.477989 -0.267247
-0.774354 -0.039703 -0.149086
-0.456492 -0.0542605 -0.357084
-0.813295 0.107142 -0.271089
-0.783483 0.721553 -0.483234
-0.935693 0.635997 -0.319979
-0.930086 0.645729 -0.322474
-0.680822 0.327209 -0.481758
-0.523635 0.0674111 -0.509314
-0.348058 -0.059334 -0.43304
-0.989947 0.548499 -0.133277
-0.788062 0.703308 -0.438344
-0.92101 0.367434 -0.358858
-0.53209 -0.0725194 -0.233854
-0.955062 0.399339 -0.194051
-0.697827 0.214891 -0.460967
-0.643925 -0.0427355 -0.478707
-0.742929 0.0142166 -0.276959
-0.944729 0.270837 -0.280807
-0.542666 0.0985651 -0.475212
-0.774147 0.233182 -0.0263613
-0.7188 -0.0852903 -0.13414
-0.965657 0.709633 -0.128682
-0.729521 0.0790083 -0.251474
-0.729261 0.16582 -0.0560812
-0.851267 0.31883 -0.434886
-0.750034 -0.0209653 -0.0165408
-0.744009 0.00641309 -0.261781
-0.790453 0.1141 -0.163077
-0.388248 0.157747 -0.584519
-0.976589 0.673151 -0.183976
-0.50107 0.333738 -0.553033
-0.871505 0.584585 -0.381065
-0.916736 0.207462 -0.276695
-0.334326 -0.00485154 -0.522764
-0.785148 0.586487 -0.389113
-0.959547 0.559898 -0.307256
-0.960934 0.735253 -0.246861
-0.924842 0.250091 -0.150374
-0.644155 0.0346227 -0.0521714
-0.834154 0.728453 -0.584071
-0.397049 0.179767 -0.592551
-0.695008 0.351426 -0.48455
-0.78111 0.333097 -0.0137046
-0.696753 0.0694562 -0.193855
-0.709001 -0.0899091 -0.30482
-0.860742 0.816517 -0.413301
-0.698784 0.575003 -0.364386
-0.459126 0.225108 -0.603748
-0.895647 0.688979 -0.345827
-0.706982 -0.0587511 -0.409116
-0.723202 -0.0609584 -0.404201
-0.893265 0.639904 -0.358045
-0.627439 -0.034982 -0.0231445
-0.879724 0.260464 -0.404013
-0.712935 0.0906955 -0.163201
-0.964729 0.33076 -0.218797
-0.888171 0.222957 -0.372877
-0.981167 0.605876 -0.246186
-0.693472 -0.0875536 -0.15668
-0.571142 0.0272879 -0.415866
-0.875506 0.442727 -0.0619298
-0.866886 0.165462 -0.1637
-0.86461 0.168156 -0.149902
-0.873226 0.167753 -0.173563
-0.626826 -0.0878741 -0.415283
-0.93218 0.35393 -0.123667
-0.643669 0.206338 -0.457552
-0.703227 0.0226571 -0.146421
-0.954741 0.378715 -0.278063
-0.823148 0.202212 -0.0622783
-0.942819 0.441077 -0.206694
-0.595057 0.458659 -0.460763
-0.676661 0.542298 -0.40611
-0.580225 -0.0252276 -0.53068
-0.433034 -0.0872312 -0.500894
-0.414947 -0.0849818 -0.501248
-0.888367 0.52041 0.0325637
-0.717974 0.0833827 -0.367084
-0.748003 -0.00222967 -0.031555
-0.854353 0.270904 -0.434866
-0.771401 0.824581 -0.638447
-0.334935 -0.0498299 -0.383358
-0.559861 0.267467 -0.526672
-0.898476 0.281081 -0.0842988
-0.899257 0.200706 -0.1748
-0.423161 0.00223893 -0.535851
-0.856059 0.404909 -0.0651686
-0.950999 0.493592 -0.00267032
-0.766676 0.79247 -0.562176
-0.771545 0.172276 -0.426214
-0.770334 0.882769 -0.697134
-0.786886 0.818754 -0.457229
-0.700565 -0.000449042 -0.0266657
-0.695029 0.084901 -0.392047
-0.726943 0.266626 -0.0102344
-0.549471 -0.0814846 -0.0315821
-0.523547 -0.0553233 -0.0743744
-0.82543 0.781884 -0.218191
-0.877879 0.741951 -0.06913
-0.771368 0.762009 -0.31763
-0.634786 0.144138 -0.0381347
-0.604801 0.0752432 -0.0446428
-0.860759 0.520505 0.0475146
-0.771756 0.337731 -0.0122773
-0.698749 0.575008 -0.364376
-0.319834 -0.0514589 -0.353692
-0.384276 0.269912 -0.596655
-0.698775 0.57504 -0.364363
-0.283938 -0.0657348 -0.495874
-0.448627 0.355577 -0.540494
-0.296676 -0.0607516 -0.421201
-0.787948 0.873659 -0.618406
-0.787948 0.873659 -0.618406
-0.787946 0.87319 -0.617272
-0.787946 0.87319 -0.617272
-0.296407 0.0345839 -0.538273
-0.77519 0.922495 -0.724897
-0.77519 0.922495 -0.724897
-0.675139 0.558108 -0.387727
-0.780159 0.829526 -0.499631
-0.780159 0.829526 -0.499631
-0.713103 0.605904 -0.362309
-0.556769 0.455105 -0.458462
-0.782224 0.844845 -0.538316
-0.782224 0.844845 -0.538316
