ply
format ascii 1.0
comment VCGLIB generated
element vertex 1870
property float x
property float y
property float z
element face 0
property list uchar int vertex_indices
end_header
-0.41368 8.20396 83.8754 
0.692632 7.65384 83.1328 
1.73808 7.18897 82.3987 
2.85732 6.75022 81.5765 
3.9134 6.39282 80.7645 
4.98708 6.08005 79.9054 
6.06975 5.8055 79.01 
7.18761 5.55091 78.0633 
8.19578 5.33215 77.1989 
9.2787 5.08565 76.2714 
10.3301 4.80515 75.3861 
11.5328 4.5127 74.653 
11.397 4.44501 74.5238 
12.0704 4.28805 74.2403 
11.9355 4.22215 74.1112 
-5.89838 45.0573 74.8563 
-5.02649 45.537 74.0893 
-6.73736 44.5447 75.5961 
-7.58644 43.9676 76.3602 
-8.36684 43.377 77.087 
-9.18252 42.692 77.8738 
-9.93538 41.9927 78.6242 
-10.7148 41.1913 79.4265 
-11.3678 40.4414 80.1253 
-12.0373 39.5694 80.8786 
-12.6141 38.7 81.5713 
-13.1577 37.7351 82.2792 
-13.6416 36.69 82.9805 
-14.0194 35.6642 83.609 
-14.323 34.6015 84.2058 
-14.5739 33.4088 84.819 
-14.7361 32.2703 85.3548 
-14.8369 31.0051 85.8983 
-14.8615 29.8835 86.337 
-14.8218 28.6384 86.7786 
-14.7082 27.3389 87.1896 
-14.5351 26.1154 87.5298 
-14.2984 24.8943 87.8233 
-13.9939 23.6636 88.0709 
-13.627 22.4538 88.2641 
-13.1928 21.2557 88.4023 
-12.7008 20.0972 88.4807 
-12.117 18.9101 88.4984 
-11.4329 17.7039 88.4429 
-10.4907 16.7369 88.4591 
-10.7057 16.5815 88.317 
-9.86868 15.4419 88.1081 
-9.66014 15.5902 88.2533 
-10.083 16.1558 88.3658 
-10.2948 16.004 88.222 
-8.95276 14.3401 87.8183 
-8.75122 14.4823 87.966 
-9.21244 15.0277 88.119 
-9.4175 14.8826 87.9725 
-8.03375 13.3523 87.4766 
-7.08732 12.4333 87.0807 
-6.5706 11.9676 86.848 
-6.04613 11.5184 86.601 
-4.95432 10.6518 86.054 
-3.90532 9.89695 85.4905 
-2.91876 9.24901 84.9288 
-1.82703 8.59626 84.2734 
-0.736443 8.00692 83.5843 
0.377508 7.46573 82.8456 
1.42938 7.00857 82.1157 
2.555 6.57713 81.2984 
3.61722 6.22556 80.4908 
4.69701 5.91798 79.6357 
5.78489 5.6486 78.7442 
6.90714 5.39933 77.8014 
7.91899 5.18496 76.9403 
9.00574 4.94309 76.0155 
10.0605 4.66814 75.1313 
11.2636 4.37935 74.3966 
11.1304 4.31456 74.2692 
11.803 4.15811 73.9843 
11.6707 4.0948 73.8572 
-6.04358 45.8699 73.2221 
-5.5352 45.7113 73.6589 
-5.1443 45.9256 73.2763 
-5.66779 46.0914 72.8175 
-4.6205 45.7435 73.7288 
-6.86027 45.3584 74.0736 
-7.65663 44.8165 74.8836 
-8.47113 44.2114 75.7095 
-9.22602 43.5967 76.4866 
-10.0202 42.8873 77.3203 
-10.7569 42.1654 78.1099 
-11.1437 41.7586 78.5316 
-11.5218 41.3395 78.9499 
-12.164 40.5675 79.6786 
-12.8237 39.6712 80.4614 
-13.3928 38.7787 81.1789 
-13.9293 37.7893 81.9098 
-14.4059 36.7186 82.6319 
-14.7761 35.6683 83.2772 
-15.0713 34.5808 83.8883 
-15.3116 33.3605 84.5146 
-15.4627 32.1959 85.0606 
-15.5163 31.552 85.3423 
-15.5499 30.9021 85.6128 
-15.5612 29.7553 86.0574 
-15.5054 28.4827 86.5035 
-15.3736 27.1552 86.9172 
-15.1823 25.9068 87.2582 
-14.9266 24.6623 87.5512 
-14.6016 23.4094 87.7966 
-14.2118 22.1775 87.9861 
-13.7513 20.9562 88.1188 
-13.231 19.7753 88.1904 
-12.6188 18.5714 88.2001 
-11.9112 17.3619 88.1363 
-10.9373 16.4151 88.1612 
-11.1683 16.2503 88.0033 
-10.3172 15.127 87.7882 
-10.0932 15.2835 87.9492 
-10.5228 15.8417 88.0646 
-10.7502 15.6811 87.905 
-9.38617 14.0389 87.4936 
-9.16978 14.1885 87.657 
-9.63832 14.7278 87.8122 
-9.8585 14.5749 87.6499 
-8.45319 13.0633 87.1488 
-7.29114 12.2941 86.9168 
-7.49434 12.1574 86.7511 
-6.44102 11.2569 86.2707 
-6.24387 11.3864 86.4367 
-6.77133 11.832 86.6839 
-6.97146 11.6989 86.5179 
-5.33744 10.4042 85.7242 
-4.27811 9.66192 85.1622 
-3.28281 9.0252 84.6029 
-2.18214 8.38405 83.9509 
-1.083 7.80514 83.2656 
0.0390997 7.27349 82.5315 
1.09781 6.82444 81.8066 
2.23021 6.40059 80.995 
3.29894 6.0549 80.1923 
4.38519 5.75238 79.3419 
5.47857 5.48792 78.455 
6.6054 5.24361 77.5167 
7.62109 5.03315 76.6595 
8.71182 4.79529 75.738 
9.76992 4.52526 74.8553 
10.9866 4.24555 74.1316 
10.843 4.17756 73.9937 
11.5278 4.02722 73.7198 
11.3851 3.96049 73.5822 
-7.7644 45.5874 73.3144 
-6.99977 46.1252 72.3827 
-8.52054 45.0212 74.191 
-9.30239 44.393 75.0759 
-10.0332 43.7585 75.9007 
-10.8072 43.0293 76.7791 
-11.143 42.232 77.8603 
-11.5284 42.2891 77.6062 
-12.2796 41.4432 78.4824 
-11.9011 41.3957 78.7183 
-11.5262 41.8201 78.2913 
-11.9081 41.8724 78.0465 
-12.9117 40.6531 79.2398 
-13.562 39.7366 80.0508 
-14.124 38.825 80.7921 
-14.6537 37.8151 81.5453 
-15.1235 36.7228 82.2874 
-15.4866 35.6517 82.949 
-15.7736 34.543 83.5742 
-15.8992 33.9257 83.8991 
-16.004 33.2992 84.2134 
-15.8041 32.1557 84.9166 
-16.1447 32.1121 84.7694 
-16.219 30.7933 85.3304 
-15.8848 30.8491 85.4732 
-15.8545 31.5054 85.2007 
-16.192 31.4557 85.0558 
-16.2178 29.6246 85.7809 
-16.1469 28.328 86.2317 
-16.082 27.6529 86.4465 
-15.998 26.976 86.6484 
-15.7895 25.7057 86.9907 
-15.5158 24.4408 87.2835 
-15.1714 23.1684 87.5274 
-14.7602 21.9172 87.7139 
-14.275 20.6753 87.8418 
-13.7279 19.4745 87.9073 
-13.0891 18.256 87.9099 
-12.3594 17.0444 87.8388 
-11.6017 15.9441 87.6994 
-10.5275 14.9811 87.6345 
-10.7374 14.8369 87.4788 
-9.79223 13.7627 87.1802 
-9.58947 13.8999 87.3378 
-10.0654 14.4326 87.495 
-10.2717 14.2921 87.3383 
-8.84615 12.7993 86.8329 
-7.87566 11.9063 86.4339 
-6.81097 11.0199 85.9533 
-5.69638 10.1809 85.4077 
-4.62741 9.45068 84.8475 
-3.62395 8.82474 84.2908 
-2.51494 8.19462 83.6423 
-1.40784 7.62554 82.9611 
-0.278149 7.10278 82.2316 
0.786907 6.66119 81.5117 
1.92558 6.24417 80.7057 
3.00034 5.90362 79.9082 
4.09257 5.60537 79.0624 
5.19101 5.34492 78.1802 
6.32203 5.10452 77.2466 
7.34121 4.89696 76.3932 
8.43557 4.66193 75.4751 
9.49671 4.39549 74.5941 
10.5726 4.0522 73.7332 
-8.64915 45.7604 72.5494 
-7.93566 46.3207 71.5385 
-9.3658 45.1735 73.492 
-10.1156 44.5256 74.4351 
-10.8228 43.8746 75.3074 
-11.2014 43.5074 75.7712 
-11.5769 43.129 76.2302 
-11.9063 42.3359 77.3523 
-12.2831 42.3736 77.0945 
-13.0208 41.5109 78.0067 
-12.6508 41.4813 78.2464 
-12.2824 41.9149 77.8019 
-12.6557 41.9486 77.5533 
-13.643 40.7057 78.7926 
-13.9694 40.2459 79.2151 
-14.2843 39.772 79.6319 
-14.8391 38.8439 80.397 
-15.3622 37.8163 81.1724 
-15.6038 37.268 81.558 
-15.8253 36.7053 81.9347 
-16.1814 35.6161 82.6127 
-16.1176 34.5179 83.4148 
-16.4607 34.4885 83.2521 
-16.6813 33.2237 83.9044 
-16.3431 33.2633 84.0605 
-16.2408 33.8953 83.7431 
-16.5816 33.8608 83.5838 
-16.4786 32.0659 84.6215 
-16.8117 32.0165 84.4705 
-16.8735 30.6753 85.0406 
-16.5466 30.7357 85.187 
-16.5229 31.4038 84.9103 
-16.853 31.349 84.7617 
-16.8601 29.4868 85.4972 
-16.461 28.2491 86.0938 
-16.7743 28.1683 85.9531 
-16.6086 26.794 86.3731 
-16.3037 26.8857 86.5121 
-16.392 27.5683 86.3095 
-16.7012 27.482 86.1698 
-16.3834 25.5037 86.717 
-16.0922 24.2202 87.0101 
-15.7288 22.9301 87.2528 
-15.2966 21.6612 87.4366 
-14.787 20.4003 87.5603 
-14.2138 19.1812 87.6201 
-13.5489 17.9494 87.6161 
-13.1796 17.332 87.5866 
-12.7975 16.7369 87.5382 
-12.0253 15.6485 87.393 
-11.1481 14.5582 87.1674 
-10.6756 14.0209 87.0249 
-10.1892 13.4984 86.8651 
-9.2303 12.5477 86.5157 
-8.24843 11.6681 86.1158 
-7.71415 11.224 85.8823 
-7.17267 10.796 85.6353 
-6.04736 9.97075 85.091 
-4.96898 9.25279 84.533 
-3.95758 8.63763 83.9791 
-2.84048 8.01846 83.3344 
-1.72563 7.45906 82.6574 
-0.588589 6.94495 81.9329 
0.482613 6.51049 81.2183 
1.62736 6.09989 80.4183 
2.70795 5.76401 79.626 
3.80595 5.46947 78.7852 
4.90926 5.21236 77.9078 
6.04429 4.97509 76.9791 
7.06681 4.76963 76.1298 
8.16461 4.53647 75.2153 
9.22864 4.2726 74.3363 
10.3072 3.93253 73.4765 
-8.94011 46.4705 70.6075 
-8.43884 46.4035 71.0753 
-8.13461 46.6535 70.5651 
-8.65094 46.7252 70.0749 
-7.61634 46.5656 71.0506 
-9.26273 46.1866 71.1619 
-9.59852 45.8896 71.7045 
-9.93167 45.5922 72.2161 
-10.2726 45.2838 72.7186 
-10.6285 44.9563 73.2257 
-10.988 44.6182 73.7251 
-11.3287 44.2899 74.19 
-11.6698 43.9525 74.649 
-11.2471 43.9197 74.9804 
-12.4025 43.1926 75.62 
-11.9906 43.1665 75.9272 
-11.6201 43.5486 75.4567 
-12.0371 43.578 75.1378 
-12.6887 42.404 76.8118 
-12.7494 42.8134 76.0754 
-13.0926 42.4239 76.5249 
-13.816 41.5464 77.4763 
-13.4192 41.5335 77.7435 
-13.0575 41.9752 77.2807 
-13.4577 41.9916 77.0039 
-14.036 40.7211 78.5451 
-14.1254 41.1424 77.8876 
-14.4275 40.7275 78.2935 
-15.0591 39.7783 79.1637 
-14.6724 39.7793 79.3998 
-14.3599 40.2573 78.9755 
-14.7488 40.26 78.7319 
-15.3388 39.3133 79.5624 
-15.6064 38.8352 79.9548 
-15.8726 38.3202 80.3587 
-16.1226 37.7912 80.7546 
-15.7431 37.8072 80.9654 
-16.5786 36.6626 81.539 
-16.2026 36.687 81.7387 
-15.9829 37.2543 81.3567 
-16.3606 37.2341 81.1517 
-16.7627 36.1154 81.8918 
-16.9273 35.5561 82.2352 
-16.8301 34.4521 83.0729 
-17.1982 34.4107 82.8901 
-17.4085 33.1256 83.557 
-17.0455 33.1768 83.7324 
-16.9485 33.8192 83.4084 
-17.3141 33.7729 83.2295 
-17.1704 31.9595 84.3042 
-17.4773 32.5154 83.851 
-17.5279 31.8988 84.1345 
-17.5763 30.5357 84.7146 
-17.2255 30.607 84.8792 
-17.2084 31.2864 84.598 
-17.5627 31.2204 84.431 
-17.5497 29.3276 85.1783 
-17.5083 28.6591 85.4153 
-17.4481 27.9875 85.6399 
-17.1118 28.0789 85.798 
-17.2644 26.5912 86.064 
-16.937 26.6934 86.2201 
-17.0342 27.3869 86.0159 
-17.3662 27.2901 85.8589 
-17.1513 25.9359 86.2433 
-17.0212 25.2809 86.41 
-16.7111 23.9791 86.7036 
-16.5284 23.3241 86.8317 
-16.3274 22.6714 86.9455 
-15.8726 21.3849 87.1267 
-15.3369 20.1048 87.2461 
-14.7356 18.8671 87.3002 
-14.396 18.2361 87.3034 
-14.0426 17.6222 87.2894 
-13.7961 17.7852 87.4539 
-13.2679 16.4099 87.2045 
-13.0331 16.5727 87.3725 
-13.4204 17.1667 87.4226 
-13.6605 17.0027 87.2563 
-12.4802 15.3355 87.0533 
-11.369 14.4104 86.9961 
-11.5892 14.2645 86.8227 
-10.6154 13.2211 86.5169 
-10.4026 13.3587 86.6921 
-10.8928 13.8773 86.8526 
-11.1093 13.7357 86.6783 
-9.64285 12.2848 86.1656 
-8.44892 11.5429 85.9414 
-8.64884 11.4203 85.7651 
-7.56123 10.5643 85.2851 
-7.36722 10.6788 85.4611 
-7.91162 11.1028 85.708 
-8.10853 10.9843 85.5318 
-6.42446 9.75441 84.7425 
-5.33606 9.04996 84.1872 
-4.31619 8.44664 83.6368 
-3.19045 7.83941 82.9966 
-2.06737 7.29047 82.3246 
-0.922492 6.78558 81.6057 
0.15524 6.35864 80.8972 
1.30643 5.95462 80.1039 
2.3932 5.62337 79.3176 
3.49733 5.33228 78.4826 
4.60579 5.07813 77.6109 
5.74504 4.84341 76.6878 
6.77106 4.63939 75.8433 
7.87248 4.40723 74.9331 
8.93952 4.14504 74.0566 
10.0209 3.80725 73.1983 
-9.4104 46.5192 70.1628 
-9.1354 46.7779 69.609 
-10.0429 45.9299 71.3003 
-9.71939 46.231 70.7382 
-10.6971 45.3164 72.3483 
-10.3656 45.6286 71.8295 
-11.3963 44.6438 73.3848 
-11.0444 44.9853 72.871 
-12.0662 43.9723 74.3331 
-11.7307 44.3125 73.8623 
-12.789 43.2068 75.3269 
-12.4282 43.595 74.8337 
-13.4715 42.433 76.2511 
-13.1319 42.8251 75.7921 
-14.1882 41.5497 77.221 
-13.8331 41.9978 76.7396 
-14.7948 40.7253 78.053 
-14.4951 41.143 77.6399 
-15.4219 39.7699 78.9379 
-15.1138 40.2547 78.4989 
-15.9657 38.8206 79.7413 
-15.6998 39.3018 79.3429 
-16.4787 37.7699 80.5528 
-16.2302 38.3023 80.1512 
-16.9314 36.634 81.3477 
-16.7151 37.2093 80.9553 
-17.2768 35.5203 82.0524 
-17.1138 36.0832 81.7049 
-17.7492 33.0734 83.3887 
-17.6573 33.7252 83.0578 
-17.5437 34.3673 82.7149 
-17.8636 31.8382 83.9716 
-17.8155 32.4591 83.6855 
-17.9056 30.4656 84.5567 
-17.8953 31.1551 84.2707 
-17.764 27.8994 85.4882 
-17.828 28.5758 85.2623 
-17.873 29.249 85.0237 
-17.5718 26.4934 85.9142 
-17.6779 27.1971 85.7083 
-17.3202 25.1744 86.2613 
-17.4546 25.8336 86.0942 
-16.608 22.5491 86.7969 
-16.8139 23.2056 86.6834 
-17.0013 23.8645 86.5553 
-14.274 17.4695 87.1321 
-14.6338 18.0857 87.1477 
-14.9802 18.7202 87.146 
-13.4884 16.2578 87.044 
-13.886 16.8493 87.0974 
-10.8153 13.0934 86.3501 
-11.3127 13.6042 86.512 
-11.796 14.1287 86.6573 
10.4337 3.53665 72.6587 
10.5677 3.59414 72.7896 
9.88605 3.74965 73.0668 
-0.634416 43.8494 76.9142 
-9.60267 46.8313 69.1049 
-9.84659 46.5857 69.6469 
-10.0654 46.3687 70.0976 
-10.2937 46.1443 70.5399 
-10.5305 45.9128 70.9741 
-10.7747 45.6744 71.4007 
-11.025 45.4294 71.8202 
-11.2806 45.1782 72.2331 
-11.5401 44.9209 72.6398 
-11.8026 44.6578 73.041 
-12.0671 44.3892 73.4369 
-12.3328 44.115 73.8278 
-12.5993 43.835 74.2139 
-12.8659 43.5491 74.5952 
-13.1321 43.2572 74.9721 
-13.3973 42.9591 75.3445 
-13.661 42.6547 75.7126 
-13.9226 42.3439 76.0767 
-14.1815 42.0266 76.4368 
-14.4373 41.7025 76.793 
-14.6892 41.3713 77.1451 
-14.937 41.0328 77.4932 
-15.18 40.6868 77.8372 
-15.4177 40.333 78.1771 
-15.6495 39.9712 78.513 
-15.875 39.6011 78.8447 
-16.0935 39.2225 79.1722 
-16.3045 38.8355 79.4952 
-16.5071 38.4401 79.8136 
-16.7008 38.0363 80.127 
-16.8846 37.6243 80.4352 
-17.0581 37.204 80.7379 
-17.2205 36.7755 81.035 
-17.3709 36.339 81.326 
-17.509 35.8944 81.6109 
-17.6346 35.4422 81.8894 
-17.7479 34.9829 82.1615 
-17.8491 34.517 82.4272 
-17.9381 34.0448 82.6863 
-18.0153 33.5671 82.9388 
-18.0806 33.084 83.1845 
-18.1342 32.5962 83.4234 
-18.1763 32.1041 83.6554 
-18.2069 31.6079 83.8805 
-18.2261 31.1081 84.0986 
-18.2339 30.6049 84.3095 
-18.2304 30.0986 84.5134 
-18.2156 29.5895 84.71 
-18.1897 29.0778 84.8993 
-18.1527 28.5639 85.0812 
-18.1046 28.0481 85.2558 
-18.0455 27.5309 85.4228 
-17.9756 27.0125 85.5822 
-17.8949 26.4935 85.7338 
-17.8034 25.9742 85.8777 
-17.7014 25.4552 86.0136 
-17.5889 24.9367 86.1415 
-17.4659 24.4194 86.2613 
-17.3325 23.9034 86.3729 
-17.1884 23.3889 86.476 
-17.0333 22.8759 86.5704 
-16.8669 22.3644 86.6559 
-16.6887 21.8544 86.7322 
-16.4986 21.3459 86.799 
-16.296 20.839 86.8562 
-16.0807 20.3335 86.9035 
-15.8526 19.83 86.9406 
-15.6127 19.3299 86.9677 
-15.3619 18.8353 86.9847 
-15.1016 18.348 86.9918 
-14.8329 17.8701 86.9889 
-14.5569 17.4035 86.9762 
-13.9877 16.5119 86.9215 
-13.5559 15.8943 86.8564 
-13.1134 15.3076 86.771 
-12.6581 14.7452 86.666 
-12.1876 14.2006 86.5424 
-11.7002 13.6685 86.4008 
-11.1976 13.1496 86.2421 
-10.6819 12.6456 86.0669 
-10.1553 12.1584 85.876 
-9.61989 11.6894 85.67 
-9.07635 11.2382 85.4495 
-8.52525 10.8041 85.2152 
-7.96715 10.3861 84.9676 
-7.40265 9.98379 84.7072 
-6.83267 9.59687 84.4347 
-6.2582 9.22537 84.1506 
-5.68021 8.86928 83.8555 
-5.09955 8.52853 83.55 
-4.51648 8.20275 83.2342 
-3.93109 7.89152 82.9081 
-3.3435 7.59439 82.5718 
-2.75394 7.31102 82.2255 
-2.1631 7.04135 81.8696 
-1.57181 6.78539 81.5044 
-0.980896 6.54316 81.1304 
-0.391028 6.31469 80.748 
0.197694 6.10006 80.3568 
0.785312 5.89936 79.9563 
1.37187 5.7127 79.546 
1.95728 5.53998 79.1259 
2.54085 5.3804 78.6966 
3.12179 5.23297 78.2595 
3.69926 5.0967 77.8156 
4.27276 4.97034 77.3661 
4.84295 4.85151 76.9118 
5.41076 4.73756 76.4538 
5.97717 4.62582 75.9929 
6.54294 4.51356 75.5303 
7.1082 4.39755 75.0668 
7.67289 4.27448 74.6038 
8.23693 4.14105 74.1422 
8.80044 3.99326 73.6841 
9.3641 3.82455 73.2349 
9.92878 3.62765 72.8008 
10.4953 3.39534 72.3881 
10.779 3.26494 72.1972 
11.4056 3.52291 72.7765 
12.0326 3.79196 73.3533 
12.3465 3.93105 73.6407 
12.6608 4.07309 73.9276 
12.9755 4.21798 74.2139 
13.2922 4.36565 74.502 
12.9484 4.5427 74.7526 
12.3991 4.79731 75.1731 
11.8495 5.01981 75.6107 
11.3001 5.21488 76.0621 
10.7512 5.38722 76.5244 
10.2032 5.54155 76.9947 
9.65589 5.68277 77.4705 
9.10872 5.81581 77.9498 
8.56132 5.94559 78.4303 
8.01331 6.07658 78.91 
7.46462 6.21127 79.3876 
6.9152 6.35169 79.8619 
6.36504 6.49987 80.3319 
5.81405 6.65782 80.7963 
5.26199 6.82752 81.2545 
4.70853 7.01093 81.7054 
4.15337 7.21001 82.1485 
3.5964 7.42632 82.5829 
3.03826 7.65981 83.0083 
2.47978 7.91 83.4241 
1.92179 8.17644 83.83 
1.36504 8.45876 84.2255 
0.809891 8.75701 84.6106 
0.256608 9.07135 84.9849 
-0.294535 9.40193 85.3483 
-0.843207 9.74888 85.7005 
-1.38882 10.1122 86.041 
-1.93072 10.4918 86.3695 
-2.46827 10.8878 86.6855 
-3.00081 11.3 86.9885 
-3.52775 11.7289 87.2779 
-4.04848 12.1746 87.5533 
-4.56242 12.6375 87.814 
-5.06882 13.1177 88.0595 
-5.56647 13.6146 88.289 
-6.05401 14.1275 88.5019 
-6.53008 14.6557 88.6972 
-6.99351 15.1988 88.8743 
-7.44386 15.7583 89.0323 
-7.88089 16.3361 89.1703 
-8.30433 16.9342 89.2873 
-8.71323 17.5527 89.3827 
-9.10388 18.1853 89.4559 
-9.47187 18.8239 89.5067 
-9.81277 19.4603 89.5349 
-10.2262 20.3087 89.5369 
-10.5887 21.1472 89.4995 
-10.9073 21.9846 89.4257 
-11.1885 22.83 89.3182 
-11.438 23.6897 89.1795 
-11.6553 24.5608 89.0112 
-11.8387 25.438 88.8147 
-11.9864 26.316 88.5913 
-12.0969 27.1901 88.3423 
-12.1702 28.0587 88.0691 
-12.2068 28.9207 87.7731 
-12.207 29.7753 87.4556 
-12.1709 30.6212 87.118 
-12.098 31.4571 86.7611 
-11.9874 32.2813 86.3857 
-11.8384 33.0922 85.9928 
-11.6501 33.8878 85.5831 
-11.4212 34.665 85.1579 
-11.1501 35.42 84.7186 
-10.8356 36.1494 84.2664 
-10.4768 36.8501 83.8029 
-10.0753 37.5206 83.3304 
-9.63348 38.16 82.8512 
-9.15365 38.7675 82.3678 
-8.63823 39.3427 81.8825 
-8.09023 39.887 81.3968 
-7.5128 40.4029 80.9121 
-6.90912 40.8923 80.4301 
-6.28146 41.3568 79.9526 
-5.62865 41.7941 79.484 
-4.94867 42.2014 79.0295 
-4.23948 42.5759 78.594 
-3.49989 42.9152 78.1818 
-2.73203 43.2194 77.7945 
-1.93888 43.4893 77.4332 
-1.12343 43.7256 77.0985 
19.1807 16.247 56.9591 
18.3288 15.6644 56.3915 
17.514 16.3088 56.8865 
18.3826 16.8874 57.4441 
19.4932 15.4079 56.1255 
19.0725 15.1115 55.8361 
19.9146 15.7017 56.4166 
19.8873 15.1263 55.7921 
19.4679 14.8267 55.4982 
20.3078 15.4224 56.0882 
20.7293 15.7152 56.3864 
20.3366 15.9931 56.7094 
18.5156 14.3016 55.0219 
15.7842 16.4848 56.7227 
16.2302 16.7656 56.9995 
16.3381 15.9894 56.4823 
16.6757 17.0493 57.2753 
17.1201 17.3356 57.5501 
17.5634 17.6244 57.8238 
18.006 17.9158 58.0966 
18.4479 18.2105 58.3679 
18.9646 17.7224 58.1457 
19.4868 17.2676 57.8699 
20.0084 16.8458 57.5465 
20.5257 16.453 57.1818 
21.0362 16.0851 56.7821 
17.9931 14.6901 55.4549 
17.4516 15.0976 55.8447 
16.8971 15.5285 56.1882 
14.843 2.29542 72.0973 
14.4482 2.10654 71.6991 
14.8258 1.72561 71.4588 
15.2184 1.91613 71.8614 
14.0537 1.9168 71.3011 
14.4338 1.53323 71.0566 
14.0773 2.95449 72.6087 
13.2775 2.5835 71.8277 
12.9122 3.30133 72.7461 
12.5048 3.11961 72.3594 
13.3195 3.486 73.1317 
12.4774 3.55948 73.0463 
12.0645 3.37849 72.6606 
12.8902 3.74444 73.4306 
15.2383 2.48346 72.4957 
15.6115 2.10487 72.2647 
13.3027 3.93311 73.8133 
13.7268 3.67343 73.5161 
13.5393 1.26037 70.3252 
11.3724 2.95426 71.7943 
15.8979 2.40555 72.7323 
15.4102 2.8802 73.0361 
14.9026 3.31005 73.371 
14.378 3.69871 73.7298 
13.8393 4.05022 74.1064 
11.9503 2.59771 71.4065 
12.5038 2.19713 71.0265 
13.033 1.75169 70.6624 
32.9921 30.297 36.4264 
33.8062 29.5753 36.7873 
33.9389 29.9357 38.0364 
33.1357 30.6049 37.5967 
32.0991 31.0571 36.1018 
32.2569 31.3155 37.1966 
31.2747 31.7282 35.8762 
31.447 31.9478 36.9108 
30.3422 32.4502 35.7137 
30.5318 32.6339 36.6904 
29.3848 33.1508 35.6438 
29.5931 33.305 36.5707 
28.4174 33.8179 35.6602 
28.6457 33.9483 36.5445 
27.4225 34.4608 35.7583 
27.6728 34.5717 36.6049 
26.4198 35.063 35.9337 
26.6938 35.1583 36.7469 
25.3317 35.6614 36.2057 
25.6327 35.7435 36.9861 
24.3731 36.1367 36.5147 
24.6987 36.2104 37.2674 
23.3267 36.5942 36.9268 
23.6791 36.6622 37.6487 
22.2925 36.9804 37.4121 
22.6708 37.0464 38.1023 
21.2876 37.2906 37.9613 
21.6898 37.3583 38.619 
20.2954 37.5307 38.5829 
20.7195 37.6035 39.2069 
19.3368 37.6959 39.2621 
19.7808 37.777 39.8515 
18.4071 37.7876 40.0003 
18.8694 37.8797 40.5538 
17.5097 37.803 40.7957 
17.9879 37.9085 41.313 
16.645 37.7382 41.6508 
17.1359 37.8592 42.1324 
15.8405 37.5934 42.5389 
16.3402 37.7326 42.985 
15.112 37.3737 43.4388 
15.6174 37.5353 43.8472 
14.4466 37.0721 44.3679 
14.9538 37.26 44.7365 
13.8795 36.7067 45.2708 
14.3814 36.9174 45.6097 
13.2682 36.1538 46.4026 
13.7511 36.3829 46.7257 
12.7681 35.5143 47.514 
13.2269 35.754 47.8331 
12.3627 34.7604 48.6477 
12.8 35.0082 48.9609 
12.0697 33.9413 49.7351 
12.4892 34.1942 50.0409 
11.8728 33.0684 50.7775 
12.2763 33.3231 51.0767 
11.7625 32.1502 51.7731 
12.1521 32.4043 52.0657 
11.7315 31.1387 52.7722 
12.1084 31.3904 53.057 
11.7792 30.1011 53.7074 
12.1455 30.3489 53.9838 
11.8949 29.0646 54.5595 
12.2516 29.3082 54.8279 
12.0937 27.9147 55.4125 
12.4397 28.1544 55.6742 
12.3656 26.7812 56.1564 
12.7014 27.0176 56.4122 
12.7165 25.6664 56.7893 
13.0443 25.8985 57.0374 
13.2278 24.3876 57.3889 
13.5497 24.614 57.6245 
13.7875 23.2448 57.8049 
14.1068 23.4667 58.0262 
14.4513 22.0865 58.1136 
14.7693 22.3053 58.3208 
15.1854 20.9668 58.3012 
15.5017 21.1842 58.498 
16.02 19.8432 58.3619 
16.3336 20.0597 58.5532 
16.8972 18.8 58.2728 
17.2069 19.0147 58.4636 
32.8294 29.9938 35.3333 
33.6522 29.2208 35.6203 
31.9245 30.8022 35.0793 
31.0877 31.5112 34.9099 
30.1404 32.2686 34.8015 
29.1667 32.9986 34.7782 
28.1817 33.6894 34.8344 
27.1673 34.3521 34.9676 
26.1436 34.9702 35.174 
25.0313 35.5823 35.4766 
24.0506 36.0666 35.8113 
22.98 36.5306 36.252 
21.9224 36.9196 36.767 
20.8961 37.2293 37.3464 
19.8842 37.4653 37.9995 
18.9078 37.6236 38.711 
17.9618 37.7056 39.4827 
17.0502 37.7091 40.312 
16.1745 37.6302 41.2005 
15.3625 37.4689 42.1216 
14.6294 37.2286 43.0569 
13.9629 36.9027 44.0231 
13.4015 36.5162 44.9538 
12.8089 35.9463 46.1004 
12.3322 35.297 47.2153 
11.9476 34.5358 48.3543 
11.672 33.712 49.4484 
11.4906 32.8374 50.4969 
11.3939 31.9197 51.4986 
11.3751 30.9105 52.5048 
11.4333 29.8763 53.4478 
11.5584 28.8436 54.3073 
11.7676 27.6968 55.1665 
12.0493 26.5662 55.9158 
12.4079 25.4549 56.5559 
12.925 24.1808 57.1672 
13.4871 23.0417 57.5965 
14.1522 21.8856 57.9185 
14.8879 20.7663 58.1158 
15.725 19.6427 58.1818 
16.6058 18.6003 58.0931 
32.6437 29.6836 34.2687 
33.4736 28.8586 34.4836 
31.7285 30.5412 34.0836 
30.8809 31.2888 33.9692 
29.9202 32.0824 33.9135 
28.9318 32.8425 33.9355 
27.9307 33.558 34.0304 
26.8983 34.2413 34.1977 
25.8551 34.8763 34.4342 
24.7202 35.503 34.7663 
23.7188 35.9971 35.1261 
22.6255 36.4685 35.5946 
21.5461 36.8614 36.1383 
20.4996 37.1713 36.7471 
19.4693 37.4042 37.4308 
18.4763 37.5564 38.1737 
17.5151 37.6296 38.9781 
16.5905 37.622 39.8404 
15.7047 37.53 40.7613 
14.8861 37.3529 41.7147 
14.1492 37.0929 42.6845 
13.4823 36.7435 43.687 
12.9271 36.3367 44.6447 
12.6274 36.0565 45.2243 
12.3535 35.7503 45.8056 
11.9003 35.0917 46.9237 
11.5369 34.3233 48.0677 
11.2788 33.4951 49.1682 
11.1131 32.6189 50.2224 
11.0303 31.7017 51.2299 
11.024 30.6945 52.243 
11.0928 29.6635 53.1935 
11.2273 28.6342 54.06 
11.4471 27.4904 54.9253 
11.7386 26.362 55.6797 
12.1049 25.2539 56.3269 
12.6279 23.9838 56.9495 
13.1925 22.8476 57.3918 
13.8589 21.6931 57.7268 
14.5962 20.5736 57.9336 
15.4357 19.4491 58.0048 
16.3198 18.4065 57.9165 
32.4144 29.3353 33.1306 
33.2505 28.4526 33.2683 
31.4899 30.2478 33.0195 
30.6319 31.0387 32.9638 
29.6582 31.873 32.9644 
28.6554 32.6671 33.0349 
27.6383 33.4107 33.1711 
26.5878 34.1177 33.3747 
25.5248 34.7721 33.6432 
24.3668 35.4159 34.0068 
23.3442 35.9217 34.3932 
22.2276 36.4022 34.8912 
21.1256 36.8002 35.4655 
20.0585 37.1114 36.1056 
19.0093 37.3419 36.8219 
17.9994 37.4883 37.5984 
17.0227 37.5528 38.4377 
16.0848 37.534 39.3352 
15.1891 37.4284 40.2909 
14.3643 37.2349 41.2788 
13.624 36.9541 42.2855 
12.9574 36.5798 43.3269 
12.669 36.2428 44.4788 
12.4096 36.1512 44.3136 
11.8572 35.5475 45.4895 
12.1191 35.8611 44.9033 
12.3738 35.9576 45.0635 
12.1059 35.6477 45.6472 
11.4302 34.8791 46.6108 
11.0902 34.1033 47.76 
10.8517 33.2703 48.8672 
10.7036 32.3925 49.9273 
10.6362 31.4757 50.9409 
10.6437 30.4706 51.9612 
10.7244 29.4429 52.9196 
10.8695 28.417 53.7936 
11.101 27.2759 54.6652 
11.4033 26.1496 55.4252 
11.7782 25.0443 56.0797 
12.3076 23.7779 56.7146 
12.8749 22.6443 57.1708 
13.5428 21.4906 57.5199 
14.2817 20.3701 57.7369 
15.1238 19.2437 57.8136 
16.0115 18.2 57.7257 
32.1714 28.9951 32.0703 
33.0118 28.0562 32.1357 
31.2395 29.9609 32.0281 
30.3731 30.7939 32.0272 
29.3887 31.6681 32.0805 
28.3736 32.4956 32.196 
27.3426 33.2671 32.3705 
26.2764 33.9975 32.6078 
25.1959 34.6715 32.9061 
24.6085 35.0107 33.0928 
24.0174 35.3326 33.2988 
22.9759 35.8505 33.7098 
21.8384 36.3406 34.2351 
20.7162 36.7444 34.8379 
19.6306 37.0577 35.507 
18.5648 37.2867 36.2537 
17.5398 37.4285 37.0615 
16.5494 37.4855 37.9331 
15.6 37.4567 38.8636 
14.6958 37.339 39.8516 
13.8657 37.1306 40.8717 
13.123 36.8307 41.9129 
12.4575 36.4333 42.9906 
12.164 36.0669 44.1586 
11.9172 35.9846 44.0043 
11.3856 35.3649 45.1941 
11.6357 35.6853 44.6034 
11.8779 35.7722 44.753 
11.6219 35.4552 45.3416 
10.9839 34.6875 46.3181 
10.6665 33.9048 47.4719 
10.447 33.0675 48.5851 
10.3159 32.1881 49.6506 
10.2635 31.2718 50.6697 
10.2846 30.2686 51.6966 
10.3768 29.2436 52.6623 
10.5322 28.2208 53.5432 
10.7749 27.0818 54.4206 
11.0876 25.9571 55.1856 
11.4707 24.8539 55.847 
12.0063 23.5905 56.4933 
12.5763 22.4586 56.9626 
13.2456 21.3051 57.3248 
13.9861 20.1827 57.5515 
14.8306 19.0538 57.6334 
15.7214 18.008 57.5459 
31.9073 28.6496 31.0403 
32.7506 27.6539 31.0354 
31.4449 29.1632 31.0493 
30.9697 29.6693 31.0652 
30.0962 30.545 31.1177 
29.1024 31.4598 31.222 
28.0765 32.3216 31.3813 
27.0333 33.1215 31.5929 
25.9527 33.8763 31.8629 
25.0281 34.6213 32.5469 
24.8562 34.5706 32.1898 
23.6587 35.2499 32.6106 
24.2595 34.9194 32.3908 
24.436 34.9652 32.7408 
23.8399 35.2913 32.9538 
22.5996 35.7805 33.0453 
21.4426 36.281 33.5971 
20.3017 36.6915 34.2273 
19.1989 37.0077 34.9245 
18.1175 37.2361 35.7006 
17.0786 37.374 36.5387 
16.0757 37.4243 37.4419 
15.1156 37.3864 38.4043 
14.2038 37.2573 39.4238 
13.3695 37.0348 40.4752 
12.6251 36.7165 41.5499 
11.9613 36.2968 42.6629 
11.6736 35.9057 43.8533 
11.429 35.8287 43.7029 
10.9185 35.1935 44.9061 
11.1566 35.5205 44.3111 
11.3966 35.6019 44.4569 
11.1525 35.2782 45.0498 
10.5421 34.5075 46.0325 
10.3834 34.1222 46.6129 
10.2477 33.7183 47.1904 
10.0473 32.8768 48.3094 
9.93341 31.9958 49.38 
9.89608 31.0799 50.4042 
9.93085 30.0783 51.4374 
10.0348 29.056 52.41 
10.2006 28.0359 53.2976 
10.4545 26.8987 54.1805 
10.7778 25.775 54.9504 
11.1691 24.6737 55.6185 
11.7109 23.4124 56.2759 
12.2836 22.2817 56.758 
12.9543 21.1277 57.1331 
13.6962 20.0028 57.3692 
14.5429 18.8705 57.4561 
15.4369 17.8218 57.369 
31.7544 28.4586 30.4894 
32.4391 27.206 29.862 
31.5943 28.2645 29.9421 
30.652 29.3442 30.0388 
31.1299 28.8089 29.9879 
31.2909 28.9874 30.5168 
30.8142 29.5081 30.5502 
29.7723 30.2675 30.1482 
29.2767 30.754 30.2217 
28.77 31.2276 30.307 
27.7338 32.1277 30.5128 
26.6785 32.9598 30.7639 
25.5838 33.7421 31.0684 
24.666 34.5154 31.8065 
24.4712 34.4596 31.4258 
23.2545 35.1598 31.8763 
23.8652 34.8194 31.6419 
24.0646 34.8695 32.0151 
23.4588 35.2049 32.2423 
22.1776 35.7052 32.336 
21.5891 35.9728 32.6152 
21.0007 36.2181 32.9158 
19.8406 36.6367 33.5752 
18.7202 36.9569 34.3023 
17.6231 37.1855 35.1096 
16.5702 37.32 35.98 
15.5546 37.3639 36.9168 
14.584 37.3167 37.9132 
14.1156 37.2581 38.4349 
13.6649 37.1759 38.9663 
12.8267 36.9386 40.051 
12.0813 36.601 41.1615 
11.7383 36.3909 41.7356 
11.42 36.1576 42.3124 
11.1636 35.7477 43.5413 
10.897 35.6689 43.3805 
10.4099 35.0174 44.5977 
10.6349 35.3513 43.9982 
10.8963 35.4348 44.1543 
10.6647 35.1043 44.7516 
10.3023 34.4137 45.8791 
10.0617 34.3223 45.7263 
9.79261 33.5261 46.8885 
9.91624 33.9333 46.3084 
10.1502 34.0265 46.4604 
10.0205 33.621 47.0392 
9.6135 32.6802 48.0133 
9.51869 31.7977 49.0891 
9.49815 30.882 50.1186 
9.54812 29.8822 51.1584 
9.66506 28.8625 52.1383 
9.84233 27.8449 53.0329 
10.1088 26.7093 53.9216 
10.4435 25.5865 54.6966 
10.8439 24.4864 55.3718 
11.3925 23.227 56.0411 
11.9682 22.0968 56.537 
12.6404 20.9415 56.9259 
13.384 19.8131 57.1721 
14.233 18.6762 57.2646 
15.1301 17.6235 57.1779 
30.493 29.1875 29.5602 
30.9719 28.6381 29.493 
31.4369 28.0789 29.4301 
28.605 31.1157 29.8804 
29.1136 30.6316 29.7829 
29.6109 30.1338 29.6963 
23.0582 35.1171 31.5337 
23.6732 34.7719 31.2925 
24.2834 34.4068 31.0694 
20.7874 36.189 32.5978 
21.3802 35.9408 32.2906 
21.9732 35.67 32.0051 
13.4083 37.1401 38.7524 
13.8604 37.225 38.2133 
14.3306 37.2862 37.6837 
11.1631 36.0951 42.1486 
11.4804 36.334 41.5631 
11.823 36.5495 40.98 
10.169 34.9377 44.4534 
10.3876 35.2748 43.8518 
10.6447 35.5968 43.2297 
15.475 17.0166 56.9677 
14.9858 17.531 57.0878 
15.6185 17.11 57.0583 
34.3824 29.978 39.4506 
32.4819 26.2532 28.7015 
18.0543 18.6074 58.5031 
32.0623 26.8488 28.7816 
31.6283 27.4335 28.8597 
31.18 28.0081 28.9376 
30.6594 28.6424 29.0272 
30.1215 29.2631 29.1217 
29.5669 29.8684 29.2239 
28.9963 30.4563 29.3366 
28.4105 31.0252 29.4623 
27.8101 31.5745 29.6018 
27.1961 32.104 29.7558 
26.5692 32.6132 29.9246 
25.9304 33.1019 30.109 
25.2807 33.5694 30.3099 
24.6215 34.0152 30.5285 
23.9538 34.4387 30.7657 
23.279 34.8389 31.023 
22.5987 35.2142 31.3024 
21.9147 35.5626 31.6064 
21.2287 35.8823 31.9373 
20.5427 36.1716 32.2971 
19.8594 36.4293 32.6854 
19.1816 36.6548 33.1017 
18.5122 36.8473 33.5452 
17.8539 37.0062 34.0151 
17.2078 37.1316 34.5104 
16.5747 37.2239 35.0299 
15.9555 37.2836 35.5727 
15.3511 37.3108 36.1373 
14.7639 37.306 36.7213 
14.1962 37.2693 37.3223 
13.6505 37.2011 37.9377 
13.1291 37.1011 38.5656 
12.6334 36.9676 39.2069 
12.1649 36.798 39.8632 
11.7247 36.5903 40.536 
11.3147 36.3435 41.2247 
10.939 36.0629 41.9192 
10.6022 35.7552 42.6072 
10.3089 35.4272 43.2762 
10.0909 35.1289 43.8368 
9.90439 34.8187 44.3801 
9.74446 34.4951 44.9124 
9.60609 34.1566 45.4401 
9.48515 33.8023 45.9682 
9.38109 33.4333 46.4956 
9.29422 33.0513 47.0198 
9.22485 32.658 47.5385 
9.1731 32.2548 48.0496 
9.13835 31.8423 48.5529 
9.11976 31.4204 49.0486 
9.1165 30.9894 49.5371 
9.12786 30.5495 50.0185 
9.15345 30.1012 50.4923 
9.193 29.6449 50.958 
9.24623 29.1813 51.415 
9.31303 28.7106 51.8626 
9.39389 28.2324 52.2991 
9.48945 27.746 52.7226 
9.60036 27.2506 53.1313 
9.72723 26.746 53.5236 
9.87049 26.2332 53.8996 
10.0305 25.7138 54.2598 
10.2078 25.1894 54.6047 
10.4025 24.6611 54.9344 
10.6149 24.1297 55.2478 
10.8452 23.5954 55.5434 
11.0933 23.0587 55.8198 
11.3595 22.52 56.0754 
11.6437 21.9801 56.3078 
11.9459 21.44 56.5143 
12.266 20.9004 56.6923 
12.6039 20.3626 56.8395 
12.9593 19.8284 56.9538 
13.3317 19.2998 57.0334 
13.7208 18.779 57.0764 
14.1258 18.2682 57.0812 
14.5457 17.7708 57.0459 
14.9791 17.2904 56.9689 
15.4247 16.8305 56.8485 
17.6264 19.0679 58.6135 
17.2088 19.5457 58.6859 
16.8029 20.0382 58.7237 
16.4099 20.5423 58.7302 
16.0309 21.0557 58.7085 
15.6667 21.5772 58.66 
15.3182 22.1063 58.5858 
14.9861 22.6422 58.4869 
14.6713 23.184 58.3639 
14.3756 23.7304 58.2163 
14.1005 24.2796 58.0429 
13.848 24.8301 57.8429 
13.6194 25.3801 57.6157 
13.4146 25.9282 57.3625 
13.233 26.4729 57.0852 
13.0741 27.0128 56.7854 
12.9371 27.5466 56.4652 
12.8204 28.0739 56.1264 
12.7219 28.5948 55.7713 
12.6397 29.109 55.4019 
12.5723 29.6165 55.0201 
12.5197 30.1168 54.6266 
12.4824 30.6094 54.2217 
12.4609 31.0937 53.8058 
12.4557 31.5693 53.3794 
12.4674 32.0354 52.9428 
12.4966 32.4912 52.4964 
12.544 32.9358 52.0408 
12.6101 33.3685 51.5764 
12.6955 33.7883 51.1039 
12.8004 34.1944 50.6242 
12.9254 34.5856 50.1379 
13.071 34.9612 49.6457 
13.2388 35.3201 49.1474 
13.4305 35.6615 48.6425 
13.6479 35.9844 48.1305 
13.8914 36.2875 47.6123 
14.1575 36.5681 47.0944 
14.4412 36.8233 46.5843 
14.7376 37.0498 46.0899 
15.0887 37.2721 45.549 
15.4533 37.4576 45.0318 
15.8345 37.6111 44.5311 
16.2355 37.7374 44.0399 
16.6585 37.8404 43.5529 
17.1019 37.92 43.0719 
17.5631 37.9754 42.6005 
18.0399 38.0057 42.1423 
18.5299 38.0103 41.7004 
19.0324 37.9893 41.2756 
19.5466 37.9435 40.8683 
20.0721 37.8732 40.4789 
20.608 37.7792 40.1078 
21.1532 37.6616 39.7561 
21.7062 37.521 39.4252 
22.2655 37.3575 39.1164 
22.8298 37.1716 38.8308 
23.3976 36.9639 38.5689 
23.9676 36.7352 38.3314 
24.5384 36.4862 38.1185 
25.1089 36.2176 37.9309 
25.6786 35.9311 37.769 
26.2469 35.6281 37.6334 
26.8135 35.3103 37.5248 
27.3779 34.9793 37.4437 
27.9393 34.6367 37.3913 
28.4965 34.2844 37.3685 
29.0486 33.9239 37.3766 
29.5946 33.557 37.4165 
30.1332 33.1855 37.4896 
30.6632 32.8109 37.5969 
31.1833 32.4351 37.7397 
31.6926 32.0595 37.9183 
32.1909 31.6852 38.1298 
32.6786 31.313 38.3707 
33.1558 30.9439 38.6373 
33.5719 30.6186 38.8933 
33.9806 30.2966 39.165 
-44.39 -22.6582 57.6623 
-44.7292 -22.9325 57.7067 
-44.9332 -22.1314 58.8363 
-44.5882 -21.8755 58.7715 
-44.0705 -22.4034 57.6232 
-44.2631 -21.6373 58.7126 
-43.7565 -22.1565 57.5876 
-43.9437 -21.4059 58.6569 
-43.4173 -21.8937 57.552 
-43.5988 -21.159 58.599 
-43.0979 -21.6499 57.5212 
-43.2738 -20.9293 58.5465 
-42.7839 -21.4137 57.4933 
-42.9544 -20.7063 58.4968 
-42.4449 -21.1627 57.466 
-42.6095 -20.4685 58.4453 
-44.1758 -23.3765 56.5152 
-44.51 -23.6653 56.5361 
-43.861 -23.1088 56.499 
-43.5516 -22.85 56.4862 
-43.2175 -22.5752 56.476 
-42.9028 -22.3207 56.4696 
-42.5935 -22.075 56.4664 
-42.2595 -21.8144 56.4661 
-43.9357 -24.0541 55.3219 
-44.2655 -24.3544 55.3174 
-43.6249 -23.7764 55.3302 
-43.3196 -23.5083 55.3422 
-42.9899 -23.2242 55.3592 
-42.6792 -22.9618 55.3791 
-42.374 -22.709 55.402 
-42.0444 -22.4415 55.4307 
-43.6823 -24.6543 54.1783 
-44.0088 -24.9634 54.1491 
-43.3747 -24.3688 54.2105 
-43.0725 -24.0938 54.2463 
-42.7462 -23.8029 54.2897 
-42.4388 -23.5348 54.3348 
-42.1368 -23.2769 54.383 
-41.8106 -23.0047 54.4395 
-43.3953 -25.2242 53.0195 
-43.7191 -25.541 52.9647 
-43.0902 -24.932 53.0761 
-42.7905 -24.6511 53.1365 
-42.4669 -24.3544 53.2068 
-42.1619 -24.0814 53.2777 
-41.8623 -23.8193 53.3518 
-41.5388 -23.5432 53.4366 
-43.0529 -25.7915 51.8012 
-43.3748 -26.1161 51.7191 
-42.7496 -25.4927 51.884 
-42.4516 -25.2057 51.9705 
-42.1299 -24.9031 52.0696 
-41.8268 -24.6252 52.1681 
-41.529 -24.3588 52.2696 
-41.2074 -24.0788 52.3845 
-42.6724 -26.3168 50.6174 
-42.9927 -26.6489 50.5084 
-42.3706 -26.0114 50.7261 
-42.0741 -25.7185 50.8385 
-41.754 -25.41 50.9659 
-41.4524 -25.1271 51.0914 
-41.156 -24.8564 51.2199 
-40.8361 -24.5722 51.3643 
-42.2437 -26.8119 49.4518 
-42.5619 -27.1515 49.3157 
-41.944 -26.4999 49.5863 
-41.6495 -26.2009 49.7243 
-41.3316 -25.8864 49.8799 
-41.032 -25.5983 50.0324 
-40.7377 -25.3229 50.1876 
-40.4199 -25.0342 50.3613 
-41.702 -27.3321 48.175 
-42.016 -27.6803 48.0092 
-41.4061 -27.0126 48.338 
-41.1155 -26.7065 48.5045 
-40.8017 -26.385 48.691 
-40.5061 -26.0907 48.8731 
-40.2156 -25.8098 49.0578 
-39.902 -25.5155 49.2635 
-41.1619 -27.7657 47.0735 
-41.4701 -28.1215 46.8822 
-40.8715 -27.4393 47.2608 
-40.5863 -27.127 47.4515 
-40.2783 -26.799 47.6644 
-39.9881 -26.4991 47.8717 
-39.703 -26.2129 48.0813 
-39.3952 -25.9134 48.3144 
-40.5346 -28.1912 45.964 
-40.8341 -28.5549 45.7478 
-40.2525 -27.8578 46.175 
-39.9754 -27.5389 46.3891 
-39.6762 -27.2042 46.6278 
-39.3943 -26.8982 46.8595 
-39.1173 -26.6064 47.0935 
-38.8183 -26.3012 47.3531 
-39.8103 -28.6057 44.8613 
-40.0974 -28.9773 44.6217 
-39.5398 -28.2651 45.0946 
-39.2741 -27.9393 45.3309 
-38.9873 -27.5976 45.5938 
-38.7171 -27.2853 45.8486 
-38.4515 -26.9876 46.1054 
-38.1649 -26.6765 46.3899 
-38.9913 -29.002 43.7899 
-39.2629 -29.3816 43.5286 
-38.7355 -28.6542 44.044 
-38.4841 -28.3216 44.301 
-38.2128 -27.9727 44.5864 
-37.9572 -27.6539 44.8625 
-37.7061 -27.3502 45.1406 
-37.435 -27.0328 45.4483 
-38.1725 -29.341 42.8643 
-38.4279 -29.7276 42.5845 
-37.9319 -28.9866 43.1359 
-37.6955 -28.6478 43.4103 
-37.4404 -28.2924 43.7147 
-37.2001 -27.9677 44.0089 
-36.9639 -27.6584 44.3048 
-36.709 -27.3351 44.6319 
-37.2243 -29.6793 41.9342 
-37.4608 -30.0734 41.6358 
-37.0015 -29.3181 42.2236 
-36.7826 -28.9727 42.5154 
-36.5463 -28.6104 42.8389 
-36.3238 -28.2794 43.1512 
-36.1051 -27.964 43.465 
-35.8691 -27.6344 43.8116 
-36.1548 -30.0075 41.026 
-36.3703 -30.4091 40.7086 
-35.9518 -29.6394 41.3333 
-35.7524 -29.2872 41.643 
-35.5372 -28.9178 41.9857 
-35.3345 -28.5802 42.3163 
-35.1353 -28.2584 42.6483 
-34.9203 -27.9221 43.0145 
-35.17 -30.2698 40.2959 
-35.3666 -30.6776 39.9621 
-34.9848 -29.8958 40.6188 
-34.8029 -29.538 40.9438 
-34.6066 -29.1625 41.3033 
-34.4216 -28.8193 41.6497 
-34.2399 -28.492 41.9972 
-34.0438 -28.1499 42.3803 
-34.0607 -30.5269 39.5756 
-34.2368 -30.9411 39.2239 
-33.895 -30.147 39.9154 
-33.7322 -29.7833 40.257 
-33.5565 -29.4016 40.6345 
-33.391 -29.0525 40.9979 
-33.2283 -28.7195 41.3621 
-33.0528 -28.3712 41.7634 
-32.8531 -30.7674 38.8976 
-33.0073 -31.1877 38.5273 
-32.7078 -30.3816 39.2549 
-32.5652 -30.0123 39.6138 
-32.4113 -29.6243 40.0099 
-32.2663 -29.2693 40.3908 
-32.1239 -28.9305 40.7724 
-31.9701 -28.5759 41.1923 
-31.6711 -30.9678 38.3285 
-31.8045 -31.3934 37.9409 
-31.5455 -30.577 38.7021 
-31.4222 -30.2026 39.077 
-31.289 -29.8091 39.4903 
-31.1637 -29.4488 39.8875 
-31.0405 -29.1049 40.2849 
-30.9075 -28.7446 40.722 
-30.4288 -31.1447 37.8219 
-30.5404 -31.5752 37.4169 
-30.3236 -30.7492 38.2118 
-30.2204 -30.3701 38.6026 
-30.109 -29.9714 39.0331 
-30.0042 -29.6061 39.4464 
-29.9011 -29.2571 39.8597 
-29.7899 -28.8913 40.3137 
-29.1544 -31.2928 37.3932 
-29.2433 -31.7276 36.9711 
-29.0707 -30.8931 37.7991 
-28.9885 -30.5096 38.2056 
-28.8999 -30.1061 38.653 
-28.8164 -29.7362 39.082 
-28.7344 -29.3824 39.5107 
-28.6459 -29.0114 39.9813 
-27.8257 -31.4132 37.0394 
-27.8899 -31.8517 36.6001 
-27.7652 -31.0096 37.4614 
-27.7059 -30.6222 37.8837 
-27.6419 -30.2142 38.3478 
-27.5817 -29.8398 38.7926 
-27.5225 -29.4816 39.2366 
-27.4586 -29.1054 39.7237 
-26.5121 -31.9428 36.3181 
-26.5299 -32.1508 36.1098 
-27.2274 -32.1089 36.2432 
-27.2035 -31.9015 36.4476 
-27.9197 -32.0583 36.3997 
-26.4737 -31.501 36.7746 
-26.4376 -31.0941 37.2126 
-26.4022 -30.7032 37.6503 
-26.3641 -30.2912 38.1311 
-26.3282 -29.9127 38.5914 
-26.293 -29.5502 39.0504 
-26.255 -29.1692 39.5536 
-25.1668 -31.7741 36.3716 
-25.1603 -31.5532 36.609 
-25.1732 -31.9975 36.1362 
-25.1543 -31.3473 36.8347 
-25.1482 -31.1436 37.0622 
-25.1423 -30.9456 37.2876 
-25.1365 -30.7497 37.5147 
-25.1238 -30.3342 38.0112 
-25.1119 -29.9522 38.4862 
-25.1003 -29.5859 38.9595 
-25.0877 -29.2005 39.4778 
-23.6728 -32.0188 36.0418 
-23.6654 -32.2287 35.8174 
-24.4234 -32.2231 35.8541 
-24.424 -32.0135 36.0744 
-25.1792 -32.2066 35.9202 
-23.6889 -31.5723 36.5326 
-23.6808 -31.7944 36.2862 
-24.4247 -31.7895 36.3143 
-24.4254 -31.568 36.5562 
-23.7041 -31.1603 37.0024 
-23.6964 -31.3653 36.7666 
-24.4261 -31.3615 36.7861 
-24.4268 -31.1571 37.0178 
-23.7191 -30.7638 37.471 
-23.7115 -30.961 37.2359 
-24.4276 -30.9584 37.2473 
-24.4283 -30.7618 37.4785 
-23.7353 -30.3449 37.9847 
-23.7507 -29.9594 38.4756 
-23.7659 -29.5893 38.9643 
-23.7822 -29.1995 39.499 
-22.3895 -32.0023 36.0563 
-22.4317 -31.5548 36.5613 
-22.4716 -31.1415 37.0444 
-22.5109 -30.7434 37.5259 
-22.5534 -30.3224 38.0531 
-22.5935 -29.9345 38.5566 
-22.6329 -29.5618 39.0574 
-22.6755 -29.1687 39.605 
-21.0871 -31.4999 36.6925 
-21.0139 -31.9473 36.1739 
-21.1563 -31.0863 37.1881 
-21.2242 -30.6874 37.6815 
-21.2977 -30.2651 38.2214 
-21.367 -29.8756 38.7364 
-21.4351 -29.5009 39.2484 
-21.5086 -29.1052 39.8078 
-19.6358 -31.8524 36.4002 
-19.586 -32.0615 36.1574 
-20.2815 -32.1143 36.0336 
-20.3232 -31.9047 36.2739 
-20.98 -32.1573 35.9364 
-19.7435 -31.4065 36.9299 
-19.8451 -30.9939 37.4355 
-19.9451 -30.5954 37.9385 
-20.053 -30.1731 38.4884 
-20.1547 -29.7831 39.0126 
-20.2547 -29.4075 39.5332 
-20.3627 -29.0103 40.1016 
-18.2654 -31.7185 36.7306 
-18.1988 -31.926 36.4839 
-18.8891 -31.9985 36.3082 
-18.9473 -31.7901 36.5531 
-18.4093 -31.2757 37.2685 
-18.5449 -30.8653 37.7815 
-18.6783 -30.4686 38.2914 
-18.8224 -30.0477 38.8483 
-18.9582 -29.6584 39.3788 
-19.0916 -29.283 39.9053 
-19.2357 -28.8855 40.4796 
-17.1224 -31.1126 37.6919 
-16.9433 -31.5509 37.1489 
-17.2913 -30.7059 38.2092 
-17.4574 -30.3123 38.723 
-17.6368 -29.8941 39.2837 
-17.8058 -29.5068 39.8174 
-17.9719 -29.1328 40.3466 
-18.1512 -28.7362 40.9236 
-15.6311 -31.3465 37.6605 
-15.5318 -31.5487 37.4102 
-16.1915 -31.6566 37.1446 
-16.2826 -31.4528 37.3946 
-16.8604 -31.7561 36.8998 
-15.8456 -30.9143 38.2056 
-16.0478 -30.5127 38.7246 
-16.2466 -30.1234 39.2396 
-16.4613 -29.7093 39.8011 
-16.6636 -29.3253 40.3351 
-16.8624 -28.9538 40.8644 
-17.0771 -28.5594 41.4408 
-14.5706 -30.9152 38.476 
-14.6941 -30.7032 38.7491 
-14.4472 -31.1285 38.2043 
-14.8105 -30.5047 39.0076 
-14.9269 -30.3074 39.2673 
-15.1557 -29.9233 39.781 
-15.4028 -29.5141 40.3409 
-15.6356 -29.1341 40.8728 
-15.8645 -28.766 41.3997 
-16.1115 -28.3745 41.9731 
-13.1746 -30.857 38.877 
-13.044 -31.0513 38.6277 
-13.683 -31.1931 38.282 
-13.8055 -30.9965 38.5319 
-14.3329 -31.3272 37.9539 
-13.4569 -30.4406 39.419 
-13.3157 -30.6482 39.1474 
-13.9379 -30.7854 38.8031 
-14.0702 -30.5755 39.0756 
-13.7231 -30.0524 39.9341 
-13.59 -30.246 39.676 
-14.195 -30.3789 39.3335 
-14.3198 -30.1834 39.5925 
-13.9847 -29.6751 40.4444 
-14.2672 -29.2724 40.9999 
-14.5333 -28.8977 41.5272 
-14.7949 -28.5342 42.049 
-15.0773 -28.147 42.6166 
-12.1165 -30.6002 39.5075 
-12.4286 -30.1922 40.0456 
-12.7228 -29.8114 40.5565 
-13.0119 -29.4406 41.0621 
-13.3241 -29.0443 41.6122 
-13.6183 -28.6749 42.1339 
-13.9074 -28.3159 42.6498 
-14.2195 -27.9329 43.2105 
-10.976 -30.2896 40.2622 
-10.8166 -30.4746 40.0171 
-11.3891 -30.6357 39.6319 
-11.5411 -30.448 39.8783 
-11.9721 -30.7903 39.2599 
-11.3205 -29.8919 40.7944 
-11.6452 -29.5199 41.2991 
-11.9644 -29.157 41.7982 
-12.309 -28.7684 42.3406 
-12.6337 -28.4055 42.8546 
-12.9528 -28.0522 43.3623 
-13.2972 -27.6745 43.9136 
-9.87504 -29.9535 41.0682 
-9.7009 -30.1331 40.8262 
-10.2535 -30.307 40.4156 
-10.4203 -30.1246 40.6593 
-10.0632 -29.76 41.3303 
-10.2514 -29.5669 41.5931 
-10.4287 -29.3855 41.8414 
-10.6061 -29.2045 42.0903 
-10.9547 -28.8503 42.5815 
-11.3311 -28.4701 43.1146 
-11.6858 -28.1143 43.6194 
-12.0343 -27.7671 44.1175 
-12.4105 -27.3951 44.6578 
-8.76899 -29.5763 41.9593 
-8.57955 -29.7499 41.7212 
-9.13435 -29.9448 41.2677 
-9.31613 -29.7682 41.5079 
-9.17837 -29.2019 42.4754 
-8.97365 -29.389 42.2171 
-9.51251 -29.5778 41.7678 
-9.70896 -29.3877 42.0284 
-9.56423 -28.8499 42.9636 
-9.3713 -29.0258 42.7193 
-9.89409 -29.2089 42.2746 
-10.0792 -29.0305 42.5213 
-9.94342 -28.5051 43.4453 
-10.3529 -28.1341 43.9676 
-10.7387 -27.786 44.4614 
-11.1178 -27.4456 44.9483 
-11.5269 -27.0799 45.4757 
-7.85167 -29.2289 42.766 
-8.29023 -28.8647 43.2739 
-8.70358 -28.5216 43.754 
-9.10977 -28.1847 44.2271 
-9.5484 -27.8212 44.7393 
-9.96165 -27.4794 45.2232 
-10.3677 -27.1444 45.6997 
-10.806 -26.7836 46.2154 
-7.36919 -28.4751 44.1764 
-6.89748 -28.8291 43.6771 
-7.81377 -28.1407 44.6476 
-8.25065 -27.8113 45.1113 
-8.72241 -27.4551 45.6127 
-9.16686 -27.1191 46.0857 
-9.60356 -26.7889 46.5509 
-10.075 -26.4323 47.0537 
-6.48244 -28.0555 45.1278 
-5.9753 -28.3994 44.637 
-6.9604 -27.7295 45.5901 
-7.43007 -27.4074 46.0445 
-7.93723 -27.0579 46.5351 
-8.41504 -26.7274 46.9972 
-8.88451 -26.4014 47.4511 
-9.39126 -26.0484 47.9409 
-5.08952 -27.9395 45.644 
-4.83738 -28.0924 45.4204 
-5.28286 -28.3282 44.911 
-5.52615 -28.1725 45.1364 
-5.74063 -28.5577 44.4098 
-5.63442 -27.6065 46.1265 
-6.14797 -27.2897 46.5803 
-6.65259 -26.9755 47.0256 
-7.19749 -26.6335 47.5055 
-7.71084 -26.3089 47.9567 
-8.21524 -25.9878 48.3993 
-8.75968 -25.6389 48.8761 
-4.85799 -27.146 47.1317 
-4.27398 -27.4673 46.6569 
-5.40839 -26.839 47.5775 
-5.94922 -26.5336 48.0141 
-6.53321 -26.1999 48.4839 
-7.08337 -25.8819 48.9249 
-7.62395 -25.5663 49.3566 
-8.20743 -25.2221 49.821 
-3.49264 -26.9615 47.7169 
-3.20246 -27.1021 47.4995 
-3.59701 -27.3614 46.9647 
-3.87701 -27.2175 47.1836 
-4.00374 -27.6143 46.4364 
-4.11973 -26.6531 48.1844 
-4.71073 -26.3571 48.6224 
-5.29145 -26.0614 49.0505 
-5.9185 -25.7368 49.5103 
-6.50922 -25.4263 49.941 
-7.08965 -25.117 50.362 
-7.71615 -24.7784 50.8138 
-3.47957 -26.1749 49.1836 
-2.80796 -26.4709 48.7224 
-4.11252 -25.8895 49.6148 
-4.73444 -25.603 50.0355 
-5.40598 -25.2872 50.4864 
-6.03863 -24.9838 50.908 
-6.66023 -24.6805 51.3192 
-7.33118 -24.3471 51.7598 
-2.10385 -25.9261 49.8185 
-1.76722 -26.0542 49.6061 
-2.12904 -26.3314 49.0562 
-2.45219 -26.2001 49.2696 
-2.49717 -26.6054 48.5077 
-2.83132 -25.6427 50.2738 
-3.5169 -25.3678 50.6986 
-4.19053 -25.0905 51.112 
-4.91789 -24.7833 51.5542 
-5.60312 -24.4869 51.9668 
-6.2764 -24.189 52.3683 
-7.00311 -23.8603 52.7975 
-2.22515 -25.1053 51.3528 
-1.43133 -25.3779 50.902 
-2.97325 -24.8392 51.7724 
-3.7083 -24.5693 52.1799 
-4.50199 -24.2688 52.6147 
-5.2497 -23.9773 53.0194 
-5.98437 -23.6831 53.4123 
-6.77736 -23.357 53.8314 
-0.752985 -24.8109 51.9985 
-0.347394 -24.9288 51.789 
-0.706804 -25.2156 51.2418 
-1.09229 -25.0954 51.4518 
-1.06398 -25.5006 50.6913 
-1.62943 -24.5476 52.4459 
-2.4554 -24.2889 52.8613 
-3.26695 -24.025 53.2638 
-4.14324 -23.7295 53.6922 
-4.96876 -23.4413 54.0898 
-5.77989 -23.1491 54.475 
-6.65543 -22.8237 54.8847 
-1.08383 -24.0242 53.4448 
-0.113813 -24.2801 52.9995 
-1.99795 -23.771 53.8572 
-2.89612 -23.5114 54.2559 
-3.86594 -23.2191 54.6791 
-4.77959 -22.9326 55.071 
-5.6773 -22.6408 55.4498 
-6.64632 -22.3145 55.8515 
0.640531 -23.7085 54.0659 
1.14896 -23.8196 53.8568 
0.7315 -24.1023 53.3317 
0.254556 -23.99 53.5405 
0.335085 -24.3941 52.7907 
-0.458097 -23.4574 54.511 
-1.4934 -23.2074 54.9221 
-2.51065 -22.9493 55.3184 
-3.60906 -22.6571 55.738 
-4.64384 -22.3693 56.1255 
-5.66059 -22.0747 56.4988 
-6.75813 -21.7438 56.8937 
1.01414 -23.4621 54.5292 
1.55477 -23.5728 54.3194 
-7.2555 -21.1492 57.888 
1.67104 -23.279 54.8776 
-43.0709 -20.551 58.781 
-43.8567 -20.8778 59.1504 
-44.6488 -21.1929 59.544 
0.778236 -23.1026 55.2016 
-0.114787 -22.9176 55.5204 
-1.00784 -22.7243 55.834 
-1.90077 -22.5229 56.1425 
-2.79356 -22.3134 56.4459 
-3.68625 -22.0961 56.7442 
-4.57886 -21.8709 57.0376 
-5.47138 -21.6379 57.326 
-6.36366 -21.3974 57.6095 
-7.81051 7.47981 100.284 
-7.9326 7.47181 100.705 
-6.54779 7.59117 100.87 
-6.45297 7.59311 100.446 
-7.69525 7.48354 99.8898 
-6.36347 7.59198 100.049 
-7.58181 7.48366 99.5051 
-6.27537 7.5881 99.6606 
-7.45915 7.47984 99.0925 
-6.18012 7.58085 99.2433 
-7.34354 7.47251 98.7064 
-6.09034 7.57111 98.8522 
-7.22996 7.46178 98.3294 
-6.00214 7.5588 98.4697 
-7.10735 7.44629 97.9252 
-5.90694 7.54247 98.0589 
-9.16179 7.41801 100.065 
-9.31142 7.40857 100.481 
-9.02053 7.42231 99.6765 
-8.88148 7.42223 99.2976 
-8.73116 7.41738 98.8919 
-8.58946 7.40829 98.5129 
-8.45025 7.3951 98.1434 
-8.29998 7.37614 97.7478 
-10.5274 7.39013 99.7908 
-10.7044 7.3825 100.2 
-10.3602 7.39196 99.4089 
-10.1956 7.38876 99.0371 
-10.0177 7.37975 98.6397 
-9.85005 7.36598 98.2691 
-9.6853 7.34749 97.9083 
-9.50746 7.32203 97.5226 
-11.8076 7.38281 99.4857 
-12.0099 7.37899 99.8882 
-11.6165 7.38038 99.1107 
-11.4284 7.37235 98.7462 
-11.2251 7.35744 98.3571 
-11.0335 7.33745 97.9948 
-10.8452 7.31222 97.6427 
-10.6419 7.2788 97.2668 
-13.0828 7.38349 99.1336 
-13.3104 7.38501 99.5292 
-12.8679 7.3754 98.7658 
-12.6564 7.36123 98.4086 
-12.4277 7.33901 98.028 
-12.2121 7.31153 97.674 
-12.0003 7.27834 97.3305 
-11.7717 7.23567 96.9645 
-14.4051 7.38189 98.7154 
-14.6595 7.39004 99.1039 
-14.1649 7.36695 98.3545 
-13.9286 7.34547 98.0048 
-13.673 7.31472 97.6325 
-13.4321 7.2786 97.2868 
-13.1955 7.23635 96.9519 
-12.94 7.18325 96.5957 
-15.6749 7.37004 98.2577 
-15.9557 7.38499 98.6395 
-15.4098 7.34813 97.9037 
-15.1489 7.31929 97.5609 
-14.8669 7.28002 97.1965 
-14.601 7.23532 96.8588 
-14.3398 7.18414 96.532 
-14.0578 7.12083 96.185 
-16.9125 7.34197 97.7526 
-17.2196 7.36336 98.1271 
-16.6225 7.3135 97.4056 
-16.3372 7.27774 97.0702 
-16.0286 7.23049 96.7142 
-15.7378 7.17777 96.3847 
-15.452 7.11824 96.0663 
-15.1435 7.0454 95.7287 
-18.2553 7.28423 97.1299 
-18.5917 7.3116 97.4952 
-17.9377 7.24963 96.7921 
-17.6251 7.20738 96.466 
-17.2872 7.15259 96.1204 
-16.9686 7.09229 95.801 
-16.6556 7.02483 95.4929 
-16.3177 6.94292 95.1667 
-19.405 7.20261 96.5262 
-19.7666 7.23358 96.8818 
-19.0636 7.16424 96.1977 
-18.7277 7.11791 95.8811 
-18.3644 7.05832 95.546 
-18.022 6.9931 95.2367 
-17.6856 6.92044 94.9389 
-17.3224 6.8325 94.6242 
-20.5567 7.07979 95.8448 
-20.9431 7.11217 96.1886 
-20.1919 7.03973 95.5276 
-19.8329 6.99142 95.2223 
-19.4447 6.9293 94.8998 
-19.0789 6.86134 94.6026 
-18.7194 6.78565 94.3169 
-18.3313 6.69406 94.0155 
-21.6963 6.90514 95.0812 
-22.1064 6.9361 95.4109 
-21.3091 6.86608 94.7775 
