ply
format ascii 1.0
comment VCGLIB generated
element vertex 1857
property float x
property float y
property float z
element face 0
property list uchar int vertex_indices
end_header
-22.0425 19.6281 25.5399 
2.10166 -27.9153 37.4665 
4.53543 -27.3839 38.1327 
1.23138 -24.3792 45.4899 
0.13965 -25.5812 42.7725 
3.34139 -27.8323 37.862 
3.04835 -26.5046 40.7251 
1.36463 -25.4806 43.2077 
1.65767 -26.8083 40.3445 
2.35302 -26.6565 40.5349 
9.92693 12.5278 3.03462 
7.78753 13.9673 3.03735 
12.0916 19.282 8.26236 
12.6011 16.4951 6.85058 
8.91426 13.3326 2.87077 
9.65013 15.7424 4.7938 
11.6085 17.3297 6.71529 
10.8726 14.9198 4.79224 
10.2613 15.3311 4.79297 
16.4106 17.3668 10.49 
16.1105 19.2273 12.25 
22.8502 15.6867 16.2643 
21.0923 15.0831 13.7019 
16.3652 18.4182 11.2597 
18.638 17.7993 13.3807 
21.0822 16.1173 14.4958 
18.8094 16.7362 12.3749 
18.7238 17.2678 12.8778 
24.433 9.61831 14.5486 
26.2204 1.26431 12.9554 
27.9647 -2.21372 14.0614 
28.209 -2.41957 15.4828 
25.1868 9.59184 15.6115 
26.423 5.33197 15.4627 
26.5114 5.25935 16.0351 
26.9821 1.17605 14.0092 
25.746 5.43594 14.158 
26.0845 5.38396 14.8104 
6.78137 -19.7479 6.98207 
4.29884 -20.4451 6.99253 
3.07586 -13.9603 1.46782 
5.47931 -15.1699 3.13508 
5.57722 -20.2306 6.85162 
4.21203 -18.1238 4.91668 
4.26536 -15.6184 2.97574 
5.63058 -17.7253 4.91072 
4.92129 -17.9246 4.91369 
26.3268 -3.53528 11.3856 
26.2591 -2.1201 11.725 
13.9183 -0.524435 1.5992 
14.0831 -3.05049 1.60004 
23.2384 -5.099 9.29289 
25.5862 -6.31053 11.7402 
14.3021 -1.68659 1.59513 
20.1016 -4.046 6.44237 
20.3352 -2.59113 6.43709 
20.2943 -2.02444 6.57093 
23.5938 -3.85066 9.17423 
26.21 -4.2627 11.3882 
16.843 -2.78649 3.70525 
20.2184 -3.31857 6.43973 
27.763 -3.75928 13.2107 
27.6262 -2.16172 13.4091 
27.9847 -4.53869 13.8657 
28.3157 -4.58611 15.4463 
27.5294 -5.21414 13.216 
26.8995 -6.6871 13.4255 
27.3077 -4.43472 12.5611 
27.6462 -4.48671 13.2134 
7.91753 -22.5431 9.6727 
17.2426 -21.2326 15.4518 
17.8959 -20.0006 15.0291 
14.4302 -22.6775 15.6057 
7.45387 -23.4327 10.6225 
12.6083 -21.8815 12.5151 
12.1139 -22.8304 13.5281 
14.963 -21.9903 14.6341 
17.0011 -21.6814 15.9183 
12.2553 -3.69769 0.716549 
9.75921 -22.7216 11.4091 
12.3611 -22.356 13.0216 
18.4241 -21.1161 16.6734 
19.2006 -19.9364 16.3645 
18.2078 -21.5313 17.1166 
18.1796 -21.8624 18.1893 
17.9117 -21.4857 16.5459 
11.2965 -2.84602 0.203033 
12.1748 -0.749779 0.447805 
13.0402 -2.1865 0.766354 
14.2045 -2.37044 1.60331 
12.4905 -2.42555 0.528969 
10.9862 -5.86562 1.10088 
12.5928 -1.7891 0.526756 
4.90317 -11.9447 0.76659 
9.19649 -4.27587 0.142391 
5.12413 -8.84394 0.170116 
6.05681 -9.70432 0.470228 
8.61958 -7.85732 0.730133 
16.9082 -17.7621 16.9472 
11.7681 -3.28227 0.45698 
7.5969 -6.9489 0.182449 
23.7007 15.5561 17.9033 
10.1597 -5.10195 0.442341 
8.10829 -7.40312 0.456263 
24.496 14.4618 18.1835 
24.4657 12.8523 16.2455 
23.7268 14.7286 16.4144 
22.9226 15.195 15.7845 
24.0229 14.683 16.9852 
23.2459 16.5668 20.1902 
24.0979 14.218 16.5452 
23.8013 18.3654 28.5883 
24.8782 13.0614 18.0554 
24.7863 16.0804 26.6315 
24.7304 14.5243 20.7132 
23.7497 17.0143 23.2317 
24.202 17.2146 26.3625 
24.101 15.014 18.0555 
24.598 15.8472 23.5306 
24.1457 15.6469 20.3998 
24.1739 16.4308 23.3812 
29.1833 -3.72024 34.1018 
27.311 6.02587 38.9577 
29.0397 -0.626908 33.4452 
27.6111 6.6729 37.7746 
28.2667 1.13279 36.5774 
16.0903 -25.1504 31.4339 
28.9491 -1.24152 34.5916 
29.3341 -3.38514 33.5168 
28.5868 1.823 35.3156 
27.9044 4.19735 37.3014 
28.4268 1.47788 35.9465 
29.3418 -5.01359 33.0043 
28.9274 -5.91764 33.526 
29.4818 -4.71164 32.4523 
29.4618 -4.71366 31.0067 
29.444 -4.37714 33.0021 
-11.7903 -19.877 47.183 
-13.6214 -18.5156 47.3227 
-13.5105 -19.8549 46.2701 
-14.0978 -20.0674 45.3368 
-12.9599 -19.9137 46.6001 
-9.76396 -21.6712 45.5416 
-13.3907 -19.465 46.7692 
-1.47582 -23.9255 46.0881 
-9.28491 -20.1111 47.5381 
-3.42968 -21.8906 47.524 
-6.7768 -22.3698 46.0846 
-3.69036 -22.8204 46.6479 
-11.907 -20.3009 46.6502 
-6.50315 -21.4783 47.2254 
-9.58963 -21.0276 46.6621 
-6.63995 -21.924 46.6551 
15.7892 -25.4872 30.1284 
17.4096 -24.4803 28.869 
17.4218 -24.5239 30.5754 
17.9684 -23.8551 31.2929 
16.9093 -24.8936 30.448 
17.2812 -24.6811 29.9663 
-18.7034 -22.7903 33.6212 
-20.2943 -21.3932 32.2337 
-19.5697 -22.2743 32.6771 
-10.0324 -29.1129 22.2765 
-10.9566 -28.5625 21.2694 
2.35677 -28.9275 34.6142 
-14.3931 -25.9959 27.9815 
-17.2705 -23.9435 30.6656 
-19.1311 -22.5402 33.1399 
-15.3172 -25.4455 26.9744 
-15.57 -25.0759 26.5999 
-12.4398 -27.4979 24.2902 
-14.8552 -25.7207 27.4779 
-19.9086 -21.677 34.7967 
-19.4154 -21.5816 35.801 
-20.3128 -21.4362 34.3561 
-21.024 -20.6234 34.048 
-19.882 -21.8848 34.1871 
-7.92847 -29.7524 22.2715 
-8.92253 -29.2494 23.2103 
-4.05032 -29.6154 23.4133 
3.84682 -29.391 32.6209 
2.84397 -29.3389 33.5695 
-5.02076 -29.7527 24.2724 
-2.5458 -29.5965 27.9531 
-2.93402 -29.388 28.3359 
-1.47612 -29.652 26.9412 
-15.9959 25.2818 24.6348 
0.998849 -29.4959 30.6218 
-2.01095 -29.6243 27.4471 
-16.9369 24.5573 23.9291 
-18.3544 23.7238 25.5172 
-17.1082 24.8426 25.848 
-16.6071 25.0691 26.8271 
-17.0713 24.8059 25.2056 
-14.089 25.5594 22.9781 
-17.5473 24.5045 25.5187 
-9.60071 25.7375 15.6366 
-15.8455 24.2069 21.6611 
-12.3032 24.4592 16.6772 
-12.7807 25.5599 20.1507 
-11.4982 25.3006 17.2638 
-16.4604 24.9227 24.2706 
-13.7845 24.7871 19.3982 
-26.2359 -8.01882 15.556 
-15.0671 25.0464 22.2851 
-13.2826 25.1735 19.7744 
-26.3415 -9.01729 16.5049 
-27.3528 -8.02433 18.2985 
-27.1474 -7.26621 16.7829 
-27.1567 -6.17063 16.5367 
-26.9278 -7.85827 16.6534 
-27.1966 -7.73216 17.2256 
-8.84286 27.2787 36.8628 
6.51802 29.696 35.4263 
-8.90176 26.1496 39.1277 
-8.66093 26.8739 38.171 
6.71205 29.2642 36.8217 
-1.1912 28.5404 36.1407 
-5.39944 27.6394 37.225 
-8.73951 27.0812 37.5167 
-0.997184 28.1086 37.5361 
-0.918034 27.7673 38.0029 
3.21107 29.0095 36.4517 
-1.0942 28.3245 36.8384 
-10.7101 26.6646 37.3214 
-11.2895 26.5832 36.3629 
-10.6251 26.4757 37.9319 
-10.9517 25.8316 38.7919 
-10.1492 26.777 37.6186 
7.79086 29.7867 33.6355 
6.37881 29.6747 33.9763 
8.87523 28.8432 29.8544 
5.50526 27.8832 18.239 
4.1926 28.2074 18.5219 
7.37622 28.7051 25.7546 
5.97602 29.051 26.0563 
5.40844 28.9978 26.1819 
7.69932 29.3293 30.1367 
-1.80695 12.5879 55.1921 
5.65294 28.4268 21.6742 
6.67613 28.8781 25.9055 
-2.38571 13.6976 54.6072 
-4.62291 13.2325 54.5413 
-3.47136 12.2539 55.3353 
-3.54821 11.1723 55.6273 
-3.10338 12.7504 55.1522 
26.1756 8.28619 40.1801 
-3.74134 12.7717 55.0623 
-7.90106 25.9717 14.9414 
2.79643 27.8718 16.9476 
2.98471 28.0714 18.3787 
0.892363 26.5138 14.8143 
-7.57383 25.4219 13.7171 
0.593684 27.2048 15.8789 
-2.56572 26.9678 15.9721 
-2.21662 26.3814 14.6662 
5.86823 27.1131 16.2856 
-5.37602 26.1444 14.7595 
-2.39118 26.6747 15.3192 
4.88278 26.8876 15.3441 
2.94726 27.5975 16.3317 
4.49807 27.8205 17.0098 
4.8526 28.0496 18.3925 
4.65079 27.564 16.4384 
-24.5052 -8.92072 13.9284 
4.03825 27.7153 16.5705 
-19.2425 -14.2888 9.73785 
-24.7024 -10.7844 15.6996 
-20.8287 -14.2572 12.477 
-22.7593 -11.1327 12.6 
-20.8643 -13.4146 11.4826 
-26.283 -8.52662 16.0221 
-22.872 -12.1976 13.6121 
4.55368 -23.5263 9.85717 
-24.7671 -9.91571 14.7295 
-22.8157 -11.6652 13.106 
5.41999 -24.0423 10.8013 
6.4282 -23.9921 11.4934 
6.08932 -22.0306 8.39971 
6.71791 -23.0588 9.60891 
7.69793 -22.9887 10.1528 
6.09735 -23.2331 9.61151 
6.31371 -22.818 9.16825 
-25.1791 5.95229 12.6629 
-14.4908 9.88403 1.97818 
-25.1575 8.03839 14.0968 
-25.1474 7.23572 13.1729 
-14.4569 11.253 2.52213 
-19.8871 7.90575 7.29264 
-22.8572 7.47311 10.5619 
-25.1566 6.59812 12.9071 
-19.8533 9.27476 7.8366 
-19.7152 9.73367 8.16983 
-16.8832 9.70738 4.56729 
-19.8702 8.59025 7.56462 
-26.3648 5.73483 14.2819 
-26.5062 4.63482 14.4582 
-26.3499 6.33375 14.5198 
-26.4473 7.01788 15.405 
-26.081 6.20749 13.9477 
-13.0988 8.63613 0.820194 
-14.2015 8.47315 1.75839 
-10.7161 5.43245 0.171032 
-9.65589 -6.65303 0.284836 
-10.9242 -6.82779 0.803654 
-10.6965 1.06538 0.218706 
-12.0494 0.878922 0.772102 
-12.4847 0.802484 1.15336 
-11.9751 5.30706 0.484013 
5.36196 11.4406 0.692738 
-10.7708 -3.36274 0.506794 
-11.373 0.97215 0.495401 
5.3302 10.1572 0.182806 
5.73793 9.0053 0.113113 
7.84346 11.744 1.37807 
7.31034 10.3761 0.506729 
7.78456 9.36089 0.43121 
6.77557 10.7359 0.507435 
7.32524 10.975 0.744652 
-17.8986 -14.3585 8.46659 
-11.377 -8.78999 1.50011 
-11.7288 -7.37659 1.54479 
-11.4679 -11.4713 3.18028 
-17.0013 -15.4089 8.46693 
-12.3842 -10.5584 3.01578 
-14.6824 -11.5519 4.95949 
-13.7254 -12.6723 4.95973 
-8.40906 -8.38099 0.28603 
-16.0236 -13.6658 6.90344 
-14.204 -12.1121 4.95954 
-8.7802 -9.60623 0.805054 
-10.9375 -9.32304 1.50597 
-10.0635 -8.15282 0.622097 
-10.2929 -6.72773 0.541374 
-9.64487 -8.64303 0.622139 
-10.2367 -8.7245 0.864277 
17.6431 7.78363 51.001 
9.92506 15.6662 51.6078 
16.8957 10.6011 49.7667 
10.6589 16.4515 50.74 
13.7744 11.7114 51.3572 
16.3193 9.93083 50.7251 
14.5572 12.549 50.4316 
12.0122 14.3296 51.0637 
14.1658 12.1302 50.8945 
26.4889 6.94968 40.3353 
27.4663 6.3382 38.3613 
27.0504 7.94549 38.7586 
26.8845 8.8196 38.0734 
26.9103 7.64366 39.3106 
0.652311 12.8089 54.5914 
27.1966 7.32187 38.831 
8.16593 16.1007 51.9869 
-0.428042 14.8802 53.4996 
5.09582 16.8258 51.7242 
3.2018 14.3229 53.6353 
5.67577 15.8947 52.4291 
-2.08441 13.1484 54.8986 
2.58439 15.5064 53.0115 
8.56816 18.4697 49.9907 
0.110371 13.9345 54.2178 
2.89311 14.9147 53.3234 
9.88083 18.1455 49.7078 
10.8051 17.3502 49.6022 
7.86514 16.6529 51.7008 
9.48037 16.8159 51.1726 
10.3025 16.0509 51.1756 
9.21027 17.3336 50.8997 
8.86783 16.9672 51.3047 
-2.36716 -1.46393 57.8211 
-4.03852 -3.28193 57.2647 
-3.08329 -2.63615 57.6752 
10.9763 -9.30099 55.7247 
10.2124 -10.5513 55.569 
4.30282 -5.36128 56.8295 
0.187215 -3.77718 57.3287 
-2.71398 -2.05706 57.7495 
3.53889 -6.61165 56.6739 
3.22711 -7.04234 56.433 
7.65452 -8.19574 56.1747 
3.92086 -5.98646 56.7517 
-4.25396 -0.747177 57.8363 
-4.19872 0.366827 57.7058 
-4.58807 -1.29422 57.7681 
-5.52847 -1.80971 57.4348 
-3.95014 -1.31532 57.8579 
12.9612 -8.60184 55.0867 
11.6578 -8.04786 55.4282 
15.541 -6.2046 53.0966 
19.008 5.14519 50.575 
17.0703 6.52049 51.4481 
17.9607 5.69623 51.2877 
16.5967 -2.01226 52.4771 
15.4796 -1.42443 53.2373 
14.9592 -1.19266 53.3644 
14.6536 -5.73042 53.9251 
0.732882 -22.5018 47.7773 
17.4226 2.29371 51.7892 
16.0381 -1.71834 52.8572 
1.78011 -23.0529 47.0647 
2.27297 -23.5279 46.0501 
-1.3606 -23.5062 46.6248 
0.218225 -24.0273 46.2372 
0.58386 -24.5294 45.3015 
0.337914 -23.6373 46.7362 
-0.270508 -23.7703 46.5697 
-17.9966 -16.9256 10.8575 
-16.2229 -16.4578 9.11299 
-16.9937 -16.9777 9.90891 
-11.5843 -27.664 20.3096 
-10.8029 -28.0402 19.1389 
-9.73326 -28.0957 18.127 
-5.87225 -8.50844 0.205849 
-14.4522 -22.5046 14.9774 
-15.9367 -19.4085 12.1655 
-17.4907 -16.9631 10.3885 
-13.3826 -22.5601 13.9655 
-12.8936 -22.4379 13.6711 
-11.8981 -25.6563 16.7775 
-13.9174 -22.5324 14.4715 
-18.533 -15.3846 9.66943 
-19.3058 -14.7818 10.2176 
-18.065 -15.409 9.22683 
-17.4438 -14.8785 8.45619 
-18.1143 -15.8748 9.66961 
2.16201 -11.5937 0.260624 
-6.56502 -10.7955 1.17473 
-0.70966 -12.575 1.16066 
-8.5826 -8.99849 0.542654 
-3.11454 -9.95757 0.227535 
-0.362821 -11.5074 0.497221 
1.96383 -12.2037 0.517288 
-3.51041 -11.2644 0.781178 
-6.26209 -9.71457 0.511469 
-3.3125 -10.611 0.504303 
3.66507 -12.3251 0.589115 
4.43315 -11.5101 0.506893 
3.49202 -12.8969 0.831348 
3.74409 -13.785 1.47065 
3.04452 -12.4996 0.591782 
-6.70518 -29.2856 19.129 
-5.84152 -29.4093 20.2958 
1.50665 -24.3196 11.3436 
4.97683 -23.7913 10.3346 
-5.25618 -27.2536 15.9457 
-8.50325 -27.8239 17.3951 
-0.611132 -26.7112 14.9442 
-0.257587 -26.7499 15.4071 
-4.4791 -27.911 16.7597 
-7.16723 -29.0104 18.6255 
-1.53525 -26.1607 13.9371 
2.3327 -24.9608 12.1216 
-1.07319 -26.4359 14.4407 
-8.49263 -29.6058 20.5942 
-7.39363 -29.7801 21.7655 
-9.48953 -29.3029 20.5966 
-10.4945 -28.8377 21.773 
-9.41675 -29.0554 19.5871 
-10.2681 -28.068 18.6329 
-8.41985 -29.3584 19.5847 
-8.95469 -29.3306 20.0906 
22.9163 19.0742 31.3668 
22.6915 19.2719 28.8531 
22.7344 19.479 30.0586 
11.0674 28.1884 35.8832 
10.8734 28.6202 34.4879 
10.4118 28.6786 33.1072 
17.0432 23.6525 33.6488 
24.4863 8.72311 42.0276 
20.261 21.3012 31.6958 
22.8175 19.2865 30.7169 
16.8492 24.0843 32.2534 
16.6693 24.0949 31.6982 
13.6315 26.4357 34.2064 
16.9462 23.8684 32.9511 
24.2287 17.8666 30.4217 
24.5392 17.0652 31.1444 
24.1437 18.0555 29.8112 
24.2015 17.8168 28.7154 
23.8575 18.3772 30.2909 
9.79456 28.0977 37.6741 
10.9707 27.4349 37.1264 
7.92407 20.6864 47.384 
9.22534 18.3181 49.8411 
7.86093 26.2526 40.7104 
6.93765 28.431 37.9954 
9.87603 23.1419 43.7331 
10.3429 22.8643 43.5192 
9.14323 26.1159 40.5214 
9.09447 28.2706 37.825 
8.47582 23.4878 44.0348 
9.20859 20.5138 47.2466 
9.17592 23.3148 43.884 
9.61663 29.1758 35.6125 
10.9704 28.4043 35.1856 
8.81952 29.5646 35.0657 
8.49095 29.6137 33.4846 
8.21643 29.5217 35.9142 
6.61503 29.4801 36.124 
9.01355 29.1329 36.4611 
8.91653 29.3487 35.7634 
19.7804 7.83056 49.1783 
25.0711 6.22841 42.3171 
21.5289 5.97608 47.301 
26.3273 7.61816 40.27 
22.9916 8.11052 44.6916 
21.3743 7.27067 47.2849 
19.947 7.16364 49.247 
23.3259 6.68504 44.8569 
24.9432 7.52489 42.2635 
23.1588 7.39776 44.7743 
18.745 7.35378 50.4444 
18.0025 8.18686 50.5703 
18.8912 6.73019 50.5167 
18.482 5.40888 50.937 
19.2337 7.09671 50.1118 
22.108 -15.8927 40.5312 
23.3818 -13.7255 40.2334 
22.8241 -14.7205 40.6772 
13.687 -12.3798 53.2044 
14.4509 -11.1294 53.3601 
14.8752 -9.74097 53.2386 
17.931 -14.1853 46.8793 
13.936 -25.6394 32.6901 
20.6583 -14.5498 43.3971 
22.4612 -15.3052 40.6165 
18.6949 -12.9349 47.035 
18.8655 -12.3802 46.9725 
15.9676 -12.5704 50.5172 
18.3129 -13.5601 46.9572 
23.2172 -15.9264 38.8452 
22.7851 -16.7093 38.166 
23.5513 -15.3793 38.9134 
24.1149 -14.5328 38.437 
23.1793 -15.5918 39.395 
11.7021 -13.0789 53.8423 
12.6748 -13.3424 52.7903 
2.4252 -19.9718 49.468 
1.26518 -22.7711 47.4289 
7.93197 -14.4305 53.2748 
9.45743 -11.6493 54.9799 
6.75417 -18.1221 50.4716 
7.13343 -18.2299 50.0411 
8.96847 -15.0357 52.7667 
11.1436 -12.785 54.2224 
5.63713 -17.5343 51.2318 
3.42284 -20.6207 48.9366 
6.19565 -17.8282 50.8517 
13.0637 -11.2868 54.4573 
14.0689 -11.7546 53.2822 
12.8872 -10.3677 54.9153 
13.5198 -8.89574 54.7066 
11.9467 -10.6989 55.2175 
10.5944 -9.92617 55.6468 
12.1232 -11.618 54.7596 
12.5052 -10.9928 54.8374 
6.11743 -28.6632 34.6392 
13.3741 -26.268 30.2532 
7.85027 -28.2136 32.0286 
15.9293 -25.3258 30.7854 
11.1253 -26.9238 33.0847 
8.18209 -28.0835 33.2828 
5.97976 -28.8303 33.9832 
10.8043 -27.283 31.6922 
13.7475 -26.1233 31.494 
10.9648 -27.1034 32.3884 
4.47005 -29.086 34.7381 
4.11773 -28.7337 35.7446 
4.32964 -29.2431 34.129 
3.33646 -29.3684 33.0859 
4.93808 -29.1103 34.2955 
-10.1613 24.0459 13.0708 
-7.69077 24.4203 12.6651 
-8.893 24.2207 12.552 
-14.104 12.4163 3.32514 
-12.9936 12.8945 2.51217 
-11.6408 13.0809 1.95877 
7.80634 25.6813 15.4783 
-11.6136 18.5174 7.78049 
-10.1509 21.726 10.4754 
-9.53055 24.1262 12.8007 
-10.2607 18.7039 7.22709 
-9.68416 18.6563 7.14921 
-11.7233 15.4953 4.53217 
-10.9371 18.6107 7.50379 
-9.39467 25.3528 14.4044 
-10.0801 25.3773 15.2936 
-8.80283 25.4343 14.1622 
-7.72516 25.7018 14.3303 
-9.24194 25.0962 13.8331 
12.8617 20.8432 10.4675 
5.96688 25.2603 13.7209 
9.84057 21.7874 10.4982 
5.38461 26.9955 15.8065 
9.40706 24.0104 13.3923 
10.8329 22.1407 11.2667 
12.3618 20.7403 10.0019 
8.35595 23.7699 12.3881 
6.93013 25.6396 14.5136 
8.88152 23.8902 12.8902 
13.5804 19.6779 9.45383 
14.4898 19.3084 9.99924 
13.1206 19.5725 9.01446 
12.6601 18.8897 8.2512 
13.0456 20.0377 9.4544 
-10.2827 10.464 0.256836 
-10.3049 9.0102 0.164442 
1.94945 12.0181 1.07315 
5.33313 10.8003 0.434978 
-6.73845 12.2236 1.09627 
-10.2074 12.9534 1.73119 
-2.4568 10.3081 0.162598 
-2.45373 9.72512 0.132742 
-6.8152 11.095 0.448885 
-10.2658 11.1485 0.528807 
-2.42297 11.6771 0.706556 
1.93541 10.8902 0.420284 
-2.43988 10.9926 0.434578 
-12.5603 10.3265 0.744604 
-12.4224 8.72935 0.543493 
-13.2198 10.9177 1.29328 
-14.4739 10.5685 2.25016 
-12.5265 11.6955 1.28856 
-12.3172 12.9877 2.23548 
-11.8669 11.1042 0.739883 
-12.5434 11.011 1.01658 
-25.6134 2.71971 39.3915 
-25.4957 -8.10974 30.7427 
-25.0821 -8.93317 31.7719 
-25.6113 -2.70646 35.0499 
-25.4323 -0.128076 38.0294 
-24.3163 11.4825 26.9738 
-25.1702 -3.58471 36.1477 
-25.1836 -3.93592 36.6138 
-25.3493 -6.16307 33.1683 
-25.3908 -3.14558 35.5988 
-3.86589 9.97482 52.6441 
-4.442 0.404664 54.4851 
-2.06192 7.85284 53.5417 
-3.07478 0.359383 54.6775 
-4.20348 5.19724 53.588 
-3.31407 7.83496 53.1786 
-2.74514 5.1489 53.7934 
-3.63455 2.51118 54.2028 
-3.47431 5.17308 53.6907 
7.57865 8.58976 3.56119 
11.467 -0.36506 3.57591 
6.81975 5.9224 2.62742 
10.2892 -0.877352 3.06741 
9.57259 4.13387 3.55688 
7.86282 6.35143 3.28156 
8.31613 3.58749 3.01443 
10.0259 1.36994 3.28976 
8.94436 3.86068 3.28566 
19.5028 -15.4753 18.0194 
23.8401 -6.07191 14.2299 
24.5171 -6.17588 15.5345 
18.7775 -15.272 16.9558 
20.3924 -11.9595 15.5497 
20.285 -12.0049 14.9777 
21.0694 -12.0635 16.8544 
22.6844 -8.75109 15.4482 
20.7309 -12.0115 16.202 
21.6755 15.5859 31.3557 
23.7525 8.28296 37.4925 
23.2055 13.0927 31.2799 
24.3661 7.5936 36.4645 
22.7204 11.9709 34.4653 
22.4698 13.6345 32.2101 
23.3747 11.2355 33.3688 
23.6252 9.57195 35.624 
23.0475 11.6032 33.9171 
19.978 -15.2233 37.5778 
15.712 -21.552 31.4904 
20.3387 -16.1135 34.8138 
16.5093 -21.0968 30.4583 
17.8397 -18.424 34.5756 
19.4514 -16.4208 35.7183 
18.69 -17.9383 33.4746 
17.0783 -19.9415 32.332 
18.2649 -18.1812 34.0251 
15.0414 -22.3024 28.5818 
15.7234 -19.9838 19.123 
16.9002 -20.8336 26.864 
16.8217 -19.1916 19.3964 
15.3644 -21.1935 23.8387 
15.7604 -21.416 26.6154 
16.5359 -20.3487 24.1303 
16.1398 -20.1262 21.3536 
15.9501 -20.7711 23.9845 
25.8361 -4.98129 33.5533 
21.5737 -12.6116 37.9029 
25.2176 -7.76117 32.8806 
21.6547 -13.3284 36.7249 
23.7298 -8.78321 35.7758 
24.9586 -7.0432 33.9376 
25.0626 -6.12366 16.7258 
23.8163 -9.54784 34.5191 
19.529 -20.2514 18.1763 
22.5875 -11.2879 36.3573 
23.7731 -9.16553 35.1475 
26.6281 -2.96521 27.5943 
26.2764 -4.90311 30.6326 
26.1136 -5.92097 31.0811 
25.6378 -3.40502 16.7951 
25.4042 -4.85987 16.8004 
26.2354 -4.20796 27.5979 
25.8895 -4.91265 23.7325 
25.9853 -5.48777 23.7044 
26.1232 -3.45779 23.7272 
25.7089 -2.09836 16.7112 
25.7774 -4.1625 19.8618 
26.0063 -4.18521 23.7299 
-24.0226 11.6639 30.5782 
-25.8781 3.58929 38.4464 
-24.9295 5.87425 39.7136 
-25.4936 4.70974 39.0087 
-24.3422 10.5676 29.9499 
-24.9604 8.10685 32.9698 
-25.3458 7.73111 32.7439 
-24.3963 9.27137 33.6747 
-25.0146 6.81065 36.6947 
-24.6783 8.68912 33.3223 
-23.9883 5.80982 17.1161 
-24.6494 10.8722 26.0905 
-23.3615 8.59327 17.7659 
-23.5789 12.5362 24.3137 
-24.1867 11.5233 25.0298 
-24.1355 8.64342 21.0885 
-23.756 7.59449 18.5054 
-23.487 9.72389 20.3246 
-23.8664 10.7728 22.9077 
-23.8112 9.18365 20.7065 
-24.6034 -5.33646 18.3308 
-24.0273 4.23369 16.4899 
-23.8541 -3.6294 16.0753 
-23.451 3.96315 15.2639 
-24.3624 -0.543194 17.4383 
-24.2153 -3.34934 17.2965 
-23.7478 -0.831712 16.1305 
-23.8949 1.97444 16.2723 
-24.0551 -0.687459 16.7844 
-25.4151 -8.88107 28.9548 
-24.7331 -6.56244 19.4961 
-24.8008 -10.2616 26.4489 
-24.2626 -7.83135 19.2189 
-25.0574 -9.01082 26.7133 
-25.1187 -7.68917 24.2302 
-28.416 -8.78532 29.9174 
-24.6167 -9.04263 23.9346 
-24.3172 6.81127 40.3967 
-24.678 -7.72098 21.4515 
-24.8677 -8.3659 24.0824 
-12.0454 14.9805 46.8021 
-4.57665 11.3374 51.9258 
-9.34281 15.822 47.5439 
-3.78827 12.4017 51.5335 
-8.34656 13.1394 49.4018 
-10.0035 14.7203 47.7673 
-7.50556 14.2746 48.9831 
-5.84865 12.6937 50.6176 
-7.92606 13.707 49.1925 
-23.509 5.27489 42.5676 
-13.732 14.4964 45.954 
-23.9501 6.15313 41.4698 
-14.1456 15.3198 44.9248 
-18.6336 9.90845 44.3153 
-21.5999 7.783 42.8181 
-19.0748 10.7867 43.2174 
-19.3733 11.1886 42.9172 
-16.1086 12.9122 44.7147 
-18.8542 10.3476 43.7663 
-5.32143 -1.03489 54.3058 
-6.20968 -3.77585 53.7951 
-13.2737 -5.42378 50.7271 
-12.6228 -6.64127 50.7736 
-6.77061 -2.62181 53.5638 
-9.32978 -3.1932 52.5435 
-14.4344 15.7607 48.7061 
-8.63525 -4.49191 52.5932 
-11.1944 -5.0633 51.573 
-8.98252 -3.84255 52.5684 
-17.7297 -4.86694 47.4613 
-14.9114 -5.09585 49.7229 
-14.218 -4.54409 50.4146 
-23.0966 4.38132 43.4342 
-24.1929 2.12034 42.2456 
-24.6575 1.15934 41.4839 
-23.6288 3.28485 42.9505 
-17.1158 -3.81851 47.933 
-19.2111 -0.478435 46.7871 
-19.8487 -2.06938 45.6905 
-13.2722 -7.982 49.9621 
-22.0176 0.844283 44.1528 
-23.7295 5.714 42.0187 
-19.2845 -0.904863 46.3954 
-19.5666 -1.48713 46.0429 
-24.689 3.61479 41.7138 
-23.9108 2.7026 42.598 
-25.1916 3.47166 40.8124 
-25.3928 2.2806 39.9405 
-25.1302 4.49304 40.616 
-25.2115 5.292 39.3612 
-24.6275 4.63617 41.5173 
-24.9096 4.05392 41.1649 
-13.1129 -17.4943 43.6507 
-17.8226 -18.8354 35.2051 
-12.95 -19.3247 41.3734 
-16.8992 -19.797 34.8429 
-15.5159 -18.1545 39.4531 
-13.7135 -18.2943 41.609 
-14.5311 -19.1802 39.0667 
-16.3334 -19.0404 36.9108 
-15.0235 -18.6673 39.2599 
-14.4521 -7.85622 49.2547 
-15.186 -5.63424 49.3883 
-13.748 -6.47726 50.304 
-12.9387 -6.02719 50.758 
-13.9948 -6.98673 49.9956 
-12.5079 -10.0302 49.492 
-14.2987 -6.41854 49.9738 
-11.6179 -16.5937 45.6714 
-14.7103 -9.79549 48.1717 
-13.7823 -14.6266 45.7646 
-12.4209 -12.3062 47.863 
-13.5103 -9.84386 48.6792 
-13.8615 -7.93193 49.605 
-12.59 -14.6345 46.2923 
-13.6795 -12.1721 47.1086 
-13.0502 -12.2392 47.4858 
-15.3564 22.1326 27.3243 
-10.6467 23.4738 35.7699 
-12.966 23.5481 28.2436 
-9.62659 24.1195 35.0985 
-13.05 22.8085 31.5732 
-13.8159 22.7799 28.8661 
-11.9619 23.4974 30.8571 
-11.196 23.526 33.5643 
-12.506 23.1529 31.2152 
-20.2187 -17.3212 31.5935 
-24.4366 -11.1611 29.9416 
-20.325 -16.4896 34.032 
-20.1271 -16.7807 32.7765 
-23.4705 -12.29 32.4625 
-24.7438 -9.88922 32.2568 
-17.0549 -7.97186 51.0306 
-21.6563 -14.9361 31.3016 
-23.2463 -12.6162 31.2202 
-25.2918 -8.51195 31.2661 
-21.7171 -14.4608 32.6951 
-21.6867 -14.6985 31.9983 
-24.9827 -10.1156 30.2916 
-24.4602 -10.95 30.599 
-25.1757 -9.73137 29.8113 
-25.1818 -9.51345 28.8033 
-25.2024 -9.5234 30.421 
-9.35252 22.1387 39.9675 
-11.5961 21.6889 38.7788 
-11.765 17.056 45.1457 
-10.3995 21.7534 39.2927 
-13.023 18.2324 42.7801 
-14.1236 16.2173 44.2483 
-10.4659 20.1681 41.6162 
-22.9294 13.8769 25.1252 
-11.8145 18.3258 43.2604 
-13.9498 14.9009 45.4381 
-11.7481 19.911 40.9369 
-11.107 20.0396 41.2766 
-12.5969 16.2345 45.5287 
-12.3638 16.9461 44.8194 
-12.4039 15.8502 46.009 
-11.6423 15.5095 46.6151 
-12.9649 15.7377 45.7118 
-23.0084 13.9557 26.5021 
-24.0557 12.0232 27.3159 
-23.8317 12.5961 25.5163 
-23.8853 12.0232 24.6604 
-23.5849 13.1056 25.8247 
-21.6357 15.5907 24.5009 
-23.8686 12.6329 26.1589 
-16.4329 21.1641 25.081 
-21.7833 15.7378 27.0709 
-18.1388 19.8259 27.0462 
-19.7014 17.5382 25.0548 
-21.5505 15.5534 25.8014 
-22.9626 13.928 25.8134 
-25.7956 14.9472 27.5929 
-17.9366 19.6072 25.7768 
-10.4841 -17.7745 45.2266 
-19.7858 17.6223 26.5235 
-19.7436 17.5803 25.7891 
-0.113866 -22.1258 43.2595 
3.01596 -25.8495 34.7951 
2.45982 -22.7369 42.0083 
4.31975 -25.5648 35.1519 
1.41002 -24.0249 39.0284 
1.23487 -22.8373 41.5732 
2.8008 -23.7212 39.4092 
2.97595 -24.9088 36.8645 
2.10541 -23.8731 39.2188 
11.8837 16.4947 10.2748 
7.61766 10.1659 4.18741 
9.3823 16.3267 8.76565 
6.47152 10.9371 4.1889 
9.79951 13.3205 7.20708 
10.3748 15.4921 8.90099 
8.57698 14.1431 7.20852 
8.00167 11.9715 5.51461 
9.18824 13.7318 7.2078 
20.5625 13.1284 16.5547 
13.0937 16.7716 11.431 
18.8346 15.4872 16.6677 
12.9331 17.7683 12.3738 
16.853 14.9347 13.9457 
18.8447 14.4529 15.8738 
16.6816 15.9978 14.9515 
14.6899 16.4796 13.0235 
16.7673 15.4662 14.4486 
24.5289 -1.78246 14.2143 
21.6085 11.5091 16.841 
25.2059 -1.88643 15.519 
22.2431 11.4117 18.0641 
24.2715 1.13242 15.4123 
23.0993 4.89779 15.4885 
23.2451 13.3123 14.9082 
23.7762 4.79381 16.7932 
24.1955 4.78846 17.1993 
22.6042 8.55915 16.8693 
23.4378 4.8458 16.1408 
4.02691 -12.1957 4.26853 
6.104 -19.4987 10.4054 
2.61401 -14.4698 5.44951 
4.77404 -19.8722 10.411 
5.11487 -15.8533 7.31291 
3.82785 -14.0213 5.60894 
3.69629 -16.2519 7.31885 
4.98331 -18.0839 9.02282 
4.40558 -16.0526 7.31587 
15.0479 -3.79546 6.07424 
12.875 -1.44729 4.37863 
12.6774 -0.370879 4.12183 
23.8359 -1.81069 13.1015 
23.4082 -4.55332 12.9538 
23.1895 -5.83599 13.1161 
23.6418 -3.09847 12.9485 
15.1463 -2.50487 6.22723 
18.4952 -1.72864 8.47256 
18.0455 -3.70794 8.61563 
21.1784 -3.45618 10.9987 
24.8674 -1.83445 14.8666 
18.2791 -2.25308 8.61036 
18.1623 -2.98052 8.613 
24.5329 -3.9838 14.0368 
23.525 -3.8259 12.9511 
24.7546 -4.76322 14.6918 
24.1786 -6.12389 14.8822 
25.2099 -4.08777 15.3415 
25.521 -4.13244 16.7977 
24.9882 -3.30836 14.6865 
24.8714 -4.03579 14.6891 
8.40581 -21.3224 13.9343 
9.2711 -19.6619 12.1615 
14.9441 -19.864 17.621 
8.777 -20.3435 13.1572 
13.8934 -19.0124 15.0261 
16.1913 -18.049 16.1303 
10.8216 -20.4959 15.084 
10.0202 -2.5523 3.07342 
13.3607 -19.6994 15.9978 
17.2342 -17.8014 17.555 
11.3161 -19.547 14.0709 
11.0688 -20.0215 14.5775 
15.9991 -19.2384 17.7174 
15.1662 -19.4232 17.1378 
16.2953 -19.2839 18.2881 
16.2735 -19.5932 19.2718 
16.5116 -18.8687 17.8449 
10.9791 -3.40397 3.58694 
12.7773 -2.13115 4.3868 
11.2554 -1.56389 3.39748 
10.874 -0.608868 3.3187 
11.1532 -2.20039 3.39981 
8.24028 -3.83889 2.65291 
11.7029 -1.96136 3.63713 
3.5238 -9.83949 3.11766 
10.03 -5.4286 3.61129 
6.38558 -9.51669 3.63607 
6.74851 -6.17523 3.04995 
9.06688 -4.60255 3.31145 
10.4919 -2.98855 3.32737 
13.3547 -4.03402 1.61193 
5.45295 -8.65633 3.33607 
21.9766 12.9112 19.2799 
7.77131 -7.08365 3.59757 
7.25991 -6.62945 3.32376 
21.1812 14.0053 18.9997 
20.4743 13.6334 17.0178 
21.5793 12.6906 17.7304 
21.9311 11.4488 17.4489 
21.5043 13.1558 18.1704 
21.0391 15.1487 20.9163 
21.2081 13.2013 17.5996 
22.0655 15.3937 28.7212 
22.5238 13.1063 21.4393 
22.5998 11.7572 19.0726 
21.0891 16.5412 26.2127 
22.0728 14.133 24.0051 
21.6238 14.0261 21.2296 
21.5816 13.4634 19.1518 
21.6733 15.4071 26.4817 
21.2244 15.3002 23.7063 
21.6486 14.7166 23.8557 
25.4592 4.35365 35.2612 
24.899 3.1458 37.4693 
26.4051 -2.65925 32.3642 
25.827 -1.68532 35.0623 
24.9974 3.7199 36.3028 
14.0624 -22.8615 29.8492 
25.6176 1.66969 34.4784 
29.4194 -2.9051 31.4726 
25.9177 -1.07071 33.9159 
25.8738 -5.35093 32.9709 
25.2974 0.979506 35.7403 
25.4575 1.3246 35.1094 
26.3502 -3.8822 32.488 
26.2559 -2.97125 32.9623 
26.3881 -4.21672 31.9381 
26.388 -4.22153 30.617 
26.248 -4.5187 32.4903 
-10.7407 -18.6103 44.1571 
-12.6593 -17.9791 43.4597 
-11.9965 -17.3892 44.8127 
-12.2116 -16.5208 45.3258 
-11.5656 -17.838 44.6436 
-8.37267 -18.2014 45.8269 
-12.1163 -17.7793 44.3135 
-1.14335 -20.6133 45.2042 
-8.85155 -19.7615 43.8305 
-3.61148 -21.354 43.8178 
-5.81201 -19.1889 45.2706 
-8.54695 -18.845 44.7064 
-10.6006 -18.1985 44.6938 
-3.35079 -20.4242 44.6939 
-9.98489 -25.6614 21.9634 
-6.08573 -20.0803 44.1297 
-5.94887 -19.6346 44.7002 
14.3634 -22.5248 31.1547 
16.1185 -21.3181 30.9832 
15.4715 -22.0847 29.7137 
15.5934 -21.9057 28.7054 
15.0994 -22.2972 30.1955 
15.612 -21.9275 30.323 
-10.508 -25.3766 25.5635 
-17.542 -19.9552 32.0839 
-18.4174 -19.3636 31.7 
-14.7731 -22.1339 31.2494 
-18.065 -22.721 34.6632 
-11.2418 -24.7215 24.7084 
-8.12347 -26.6248 23.7893 
-13.8175 -22.8353 27.0248 
-14.2578 -22.792 26.644 
-15.4691 -21.4996 30.3483 
-17.3564 -19.3166 35.0365 
-12.8934 -23.3857 28.0319 
-13.3554 -23.1105 27.5284 
-17.7788 -19.6072 33.502 
-17.1034 -20.221 32.5467 
-18.2097 -19.1584 33.671 
-18.868 -18.4162 33.3892 
-17.8054 -19.3993 34.1116 
1.80514 -26.7006 29.4433 
2.44701 -26.2829 32.9822 
2.00287 -26.2001 34.0116 
-6.04878 -26.8576 21.954 
-7.11846 -26.8021 22.9659 
0.86051 -26.4624 30.3091 
-1.26958 -26.6488 26.9947 
-2.75331 -26.7601 28.3827 
-4.46941 -26.7797 24.6922 
-15.1803 21.957 24.2565 
-2.33927 -26.5933 28.0066 
-1.80443 -26.621 27.5007 
-14.2393 22.6816 24.9621 
-14.8415 22.46 27.0002 
-15.7375 21.9081 25.7713 
-16.4834 21.1958 25.7693 
-15.2614 22.2095 25.4579 
-14.448 21.9219 22.1439 
-15.2983 22.2463 26.1006 
-9.52947 22.3596 16.3058 
-12.6915 23.2743 23.4608 
-9.52136 23.5001 19.0005 
-12.4001 22.1603 20.2491 
-13.4699 22.4348 22.8369 
-14.7036 22.3225 24.5978 
-10.3264 22.6587 18.4139 
-23.555 -8.16352 17.7134 
-11.3963 22.9332 21.0017 
-11.8982 22.5468 20.6254 
-23.4494 -7.16517 16.7645 
-24.3173 -5.45904 17.7141 
-24.352 -6.93057 18.3857 
-24.5017 -7.20095 19.3697 
-24.0831 -7.05682 17.8135 
5.94063 26.3305 36.0212 
-24.3027 -6.4646 17.9428 
2.66913 26.6624 34.4393 
-7.685 24.0666 37.1666 
-7.9817 23.6655 38.174 
-5.0053 25.36 35.1034 
2.81411 26.103 35.6075 
3.70165 25.2956 19.5814 
-0.894914 25.238 36.6336 
-0.82855 25.2555 37.2133 
-4.79792 24.805 36.2643 
-10.1443 23.7975 35.4234 
-1.08894 25.6698 35.2382 
-0.991926 25.4539 35.9359 
-9.0483 23.9787 36.5996 
-7.76358 24.2739 36.5123 
-9.52441 23.6773 36.9129 
-9.82702 23.0913 37.7058 
-9.60928 23.8662 36.3024 
6.34184 25.3885 22.0575 
8.32184 26.5001 32.6708 
5.67849 27.0341 33.3448 
6.92165 26.846 32.9725 
5.08093 25.5088 22.3647 
4.81337 26.4373 26.3554 
6.69614 25.7789 25.9529 
6.91118 26.3949 29.8429 
-2.10936 12.3461 51.7697 
5.29593 26.1247 26.2546 
5.99604 25.9518 26.1038 
-1.53056 11.2365 52.3547 
-3.18344 9.94 52.7458 
-3.3821 11.4494 52.1982 
-4.19337 11.876 51.7253 
-2.744 11.4283 52.2881 
23.6974 6.15192 39.1003 
-3.11197 10.9316 52.4712 
-4.50492 23.0812 14.9131 
2.74872 24.4281 16.9225 
-5.11583 24.1073 17.1984 
-4.7727 23.4242 16.1421 
0.186838 25.0492 18.1928 
2.61054 25.4624 19.3686 
-1.96906 23.598 15.9822 
-9.3698 27.1912 35.7616 
0.485566 24.3582 17.1283 
4.36075 24.0299 16.5751 
-2.31807 24.1844 17.2882 
-2.14357 23.8912 16.6352 
5.34619 24.2554 17.5166 
4.36166 25.1378 19.452 
3.57428 24.8055 17.753 
2.57228 24.7035 17.5309 
4.18687 24.6542 17.621 
-22.4169 -9.90056 16.884 
4.03419 24.9107 18.1924 
-17.3755 -13.7037 12.5725 
-22.2196 -8.03703 15.1128 
-18.7529 -11.1449 12.2288 
-20.4925 -10.9791 15.1591 
-22.1549 -8.90562 16.083 
-23.4963 -7.67299 17.2306 
-18.7173 -11.9876 13.2232 
3.9796 -21.0721 11.7253 
-20.3798 -9.9141 14.147 
-20.4361 -10.4466 14.6531 
5.83775 -21.7976 13.1554 
4.84602 -21.5881 12.6694 
6.94838 -20.5779 12.045 
5.64166 -20.3963 11.1085 
5.4368 -19.6776 10.3977 
5.42527 -20.8115 11.5517 
-13.1069 10.1786 5.14233 
6.04597 -20.6371 11.5491 
-15.3832 7.5838 6.32602 
-22.4833 6.56753 14.6889 
-22.7399 7.40521 15.3933 
-20.6532 5.56717 11.7292 
-15.2516 8.72 6.95086 
-9.86424 -6.05788 3.65423 
-17.8462 8.40341 9.90477 
-17.959 8.97124 9.9795 
-20.4747 6.71786 12.3146 
-23.7427 4.08567 15.878 
-17.8801 7.0344 9.36082 
-17.8631 7.7189 9.63279 
-23.323 5.56831 15.3849 
-22.4926 5.92993 14.4232 
-23.592 5.69454 15.9571 
-23.6874 6.32492 16.7678 
-23.6068 5.0956 15.7191 
-8.55662 -2.82907 2.66665 
-10.5029 7.844 2.97597 
-13.0144 7.58777 4.13941 
-11.8558 7.65755 3.52936 
-9.67167 -2.96749 3.3271 
-11.4771 0.711191 3.58582 
-9.54501 0.961041 2.99864 
-10.7713 4.70318 3.22346 
4.73543 10.3189 3.55484 
-10.8979 0.774593 3.55204 
-10.2214 0.867822 3.27534 
5.12344 8.0545 2.69096 
4.70378 9.03546 3.04485 
6.99603 8.32219 3.30405 
6.57326 9.85201 3.61771 
7.05132 10.5614 4.1938 
6.02354 9.61298 3.38039 
-10.4032 11.8803 4.57974 
6.55847 9.25307 3.37973 
-13.5948 -13.2864 8.93398 
-9.37871 -8.89923 4.30315 
-15.2696 -11.3257 8.93353 
-14.3261 -12.2155 9.06916 
-12.0369 -8.56549 5.48027 
-10.7396 -6.62628 4.07171 
-12.2448 -11.4071 7.35714 
-25.2391 4.7359 12.7846 
-11.1205 -9.47827 5.6448 
-7.8212 -8.68463 3.66601 
-13.2018 -10.2866 7.35682 
-12.7233 -10.8469 7.35698 
-7.45006 -7.45939 3.14699 
-9.23301 -5.95782 3.39195 
-9.18983 -7.82975 3.72505 
-9.83643 -8.38191 4.30878 
-8.59796 -7.74817 3.48294 
-8.7734 -25.2347 18.9847 
-9.01665 -7.25791 3.4828 
11.5497 13.6307 47.9874 
10.1798 12.1647 49.6071 
16.4472 7.76249 47.7712 
14.0056 8.25747 49.3064 
10.7883 12.8023 48.6461 
13.0765 11.2839 48.0342 
14.582 8.92768 48.3479 
12.2937 10.4461 48.9599 
12.6851 10.865 48.497 
23.3841 7.48838 38.9453 
24.0593 7.9494 36.9711 
24.3519 6.52029 37.6709 
24.606 5.6176 37.2415 
24.0656 6.84205 38.1506 
-0.403857 13.621 51.0868 
24.2057 7.14404 37.5985 
6.70269 15.45 48.9375 
0.676569 11.5498 52.1785 
5.62008 13.291 50.5896 
2.28042 13.9506 50.3606 
0.138054 12.4954 51.4602 
-1.80791 11.797 52.0611 
5.04014 14.2221 49.8847 
7.6053 16.6082 47.6561 
2.89777 12.767 50.9844 
2.58909 13.3588 50.6725 
9.89277 15.7351 47.4841 
8.91802 16.2839 47.3733 
9.27104 14.3269 48.7429 
7.90051 15.1776 48.8669 
6.98076 14.8926 49.2364 
8.24298 15.5442 48.4619 
9.06264 -9.50944 52.8423 
8.5131 15.0263 48.7349 
7.54423 -6.298 53.6768 
-2.74366 -2.45606 54.5616 
-3.65918 -3.10328 54.4806 
0.87482 -2.34114 54.6236 
-2.1957 -0.265653 57.6402 
6.82392 -7.33852 53.3651 
3.13382 -6.00063 53.7537 
2.87267 -6.5077 53.8778 
0.207696 -3.41242 54.298 
-3.75804 0.395293 54.5818 
3.89774 -4.75027 53.9093 
3.51579 -5.37544 53.8315 
-3.50402 -1.19683 54.7167 
-2.37435 -1.87698 54.6359 
-4.14211 -1.17566 54.6269 
-5.0076 -1.64988 54.3272 
-3.80789 -0.628635 54.6949 
16.7036 1.51706 48.8342 
16.0129 5.07062 48.9094 
15.353 5.8885 49.3084 
12.776 -8.20146 51.6488 
10.5694 -7.17851 52.9947 
11.659 -7.61364 52.409 
15.6131 2.0139 49.3467 
13.5372 -1.03404 51.1523 
14.9716 -1.83096 49.949 
9.55256 26.0771 32.51 
13.213 -5.08806 51.3116 
0.643145 -20.0862 45.7776 
13.8545 -1.24314 50.7092 
14.413 -1.53706 50.3291 
2.18713 -21.312 44.3154 
1.69034 -20.6374 45.0649 
0.542388 -21.9913 43.428 
-0.282531 -21.2671 44.6165 
-1.2847 -21.0297 44.6714 
0.325944 -21.1342 44.7831 
13.66 -8.80491 50.8913 
0.206165 -21.5243 44.2839 
-15.143 -15.2604 11.7711 
-14.5825 -14.9611 10.8438 
-10.6803 -25.1019 21.0028 
-11.7552 -23.1552 18.6688 
-15.3165 -17.5201 14.5949 
-18.8033 -16.3239 11.554 
-10.7473 -23.0404 17.8505 
-5.9566 -9.91894 3.67862 
-11.9772 -20.2709 15.3255 
-11.6639 -20.4348 14.8611 
-14.2768 -17.4461 13.8124 
-17.3333 -13.1984 12.1033 
-13.0469 -20.2154 16.3374 
-12.5121 -20.2432 15.8315 
-16.1999 -14.2392 11.6036 
-15.64 -15.2458 12.2507 
-16.1506 -13.7733 11.1608 
-15.5836 -13.2892 10.4481 
-16.6186 -13.749 11.6035 
1.51955 -11.5234 3.6436 
-5.26386 -7.63201 2.70971 
-0.0237825 -9.22454 2.69707 
-8.46533 -6.9268 0.20982 
-5.56677 -8.71281 3.373 
-7.62361 -8.07689 3.40362 
-3.16659 -10.1559 3.64365 
-0.370607 -10.292 3.36055 
4.01275 -10.2564 3.37147 
-2.77079 -8.84897 3.0899 
-2.96868 -9.50241 3.36678 
2.68513 -11.1773 3.45584 
1.6923 -10.9081 3.38122 
3.13264 -11.5748 3.69549 
3.36521 -12.3941 4.27711 
3.30584 -11.0029 3.45323 
1.26168 -22.0868 12.7888 
-5.16387 -26.7784 20.9896 
-6.83107 -25.825 18.9801 
-7.72071 -25.2555 18.2031 
-5.90697 -26.3755 19.9871 
-0.159484 -24.403 16.5998 
2.05276 -22.4089 13.7733 
4.40286 -21.3371 12.2026 
-1.42313 -23.4785 15.3002 
4.19894 -22.6643 9.06396 
-3.97495 -25.0986 17.8342 
-6.58362 -26.8298 22.4599 
-0.499019 -24.0289 16.3073 
-0.961081 -23.7537 15.8038 
-7.52362 -26.4157 20.3707 
-6.36903 -26.1002 19.4836 
-8.52052 -26.1127 20.3731 
-9.30824 -25.207 19.4907 
-8.5933 -26.3601 21.3826 
-9.52284 -25.9366 22.467 
-7.59641 -26.6631 21.3802 
-8.05846 -26.3879 20.8766 
9.87492 25.7426 33.7362 
12.5776 23.5431 34.8193 
20.3047 17.5129 29.7881 
20.485 17.5319 28.6787 
18.4404 18.897 32.5664 
22.7682 5.54037 41.0402 
12.3263 23.7534 33.5579 
15.1351 21.6624 31.7423 
15.1695 21.9757 31.251 
18.1379 19.1398 31.3221 
21.9877 15.2329 30.8505 
15.3291 21.2306 33.1377 
15.2321 21.4465 32.44 
21.3255 16.4762 30.0548 
20.3878 17.3204 30.4463 
21.6118 16.1545 29.575 
21.6703 15.9392 28.568 
21.6967 15.9656 30.1855 
7.09326 18.8684 45.6123 
10.0894 24.8825 36.3708 
7.49371 25.5729 37.0866 
6.2153 25.8394 37.2056 
8.8939 25.2271 36.7849 
9.52757 20.7939 42.1089 
8.25909 18.436 45.2218 
8.26253 16.4566 47.5067 
7.54406 21.1216 42.423 
7.42734 18.1845 50.33 
8.22926 23.4615 39.3225 
9.97192 25.5267 34.4339 
8.94426 20.7757 42.1213 
8.24415 20.9487 42.2721 
8.11732 26.1901 35.6751 
8.1938 25.4 36.9358 
7.3202 26.579 35.1283 
5.84363 26.5464 35.3235 
7.92329 26.6219 34.2797 
7.62175 26.6731 32.8217 
8.7204 26.2331 34.8265 
8.0203 26.406 34.9774 
18.0466 5.74932 47.051 
22.1832 8.03492 40.7508 
19.0131 7.8091 45.2111 
23.1596 18.2303 32.2193 
22.3112 6.73847 40.8042 
23.5356 6.82037 39.0352 
20.9065 5.91373 43.0984 
19.765 5.10247 49.6143 
19.1677 6.51451 45.2272 
16.0727 7.3804 48.2082 
20.5723 7.33926 42.933 
20.7394 6.62649 43.0157 
17.2397 6.35576 47.7547 
17.8998 6.41887 46.9648 
16.8972 5.98919 48.1597 
16.5342 4.78327 48.5587 
16.751 6.61294 48.0873 
13.12 -9.9922 50.7566 
13.8412 -12.5033 48.2092 
20.4469 -13.1107 39.4126 
21.1993 -12.3202 39.1432 
17.9713 -14.2296 41.8064 
12.0808 -23.8939 29.939 
14.4125 -11.3319 48.2007 
16.8408 -11.5614 45.1009 
17.2431 -11.1783 45.2802 
18.5052 -13.0412 41.8456 
20.3731 -15.0062 37.0544 
16.0769 -12.8117 44.9453 
16.4588 -12.1865 45.0231 
20.7272 -13.9482 38.2261 
20.0839 -13.6953 39.3519 
21.0993 -13.7357 37.7444 
21.6227 -12.961 37.309 
20.7651 -14.2827 37.6763 
2.14256 -18.0878 47.5958 
11.5464 -12.2644 50.4607 
9.40665 -11.3002 51.9501 
8.45579 -10.638 52.564 
10.5237 -11.888 51.1899 
6.57859 -16.652 48.0057 
3.09979 -18.4676 46.797 
1.17541 -20.3556 45.4292 
5.00303 -15.731 48.9056 
-0.421681 -22.1099 47.8839 
8.02336 -13.5824 50.2542 
12.738 -10.6174 50.6788 
6.12007 -16.3188 48.1454 
5.56155 -16.0249 48.5255 
10.8671 -10.5146 52.0605 
9.96516 -11.5941 51.57 
10.6905 -9.59546 52.5185 
9.44461 -8.88426 52.9201 
11.631 -9.26419 52.2162 
12.2175 -7.90756 52.0289 
11.8076 -10.1833 51.7583 
11.249 -9.88937 52.1384 
5.25032 -25.9655 32.6814 
12.6426 -23.2653 32.3758 
7.69904 -25.0066 33.9647 
21.539 -16.7418 39.8579 
12.2693 -23.41 31.1349 
14.2023 -22.7002 30.5062 
9.65772 -24.453 31.2264 
4.93719 -29.0614 32.1732 
7.36721 -25.1367 32.7104 
3.664 -25.705 34.9861 
9.97878 -24.0937 32.6189 
9.81825 -24.2733 31.9227 
4.45488 -26.0466 33.6166 
5.41362 -25.7958 33.3309 
3.8464 -26.1795 33.4501 
2.9395 -26.3123 32.4987 
3.9869 -26.0223 34.0593 
-7.91531 21.6609 14.0796 
-6.87685 22.086 14.0125 
-12.9208 11.3755 5.64442 
-11.799 13.9335 7.25393 
-10.3659 19.436 12.6114 
-10.9543 23.9705 14.0001 
-10.5414 14.0035 6.91879 
5.35749 22.8967 14.925 
-9.15304 16.8237 9.30139 
-8.71496 17.0111 8.96423 
-9.11755 19.4574 12.2373 
-9.06781 22.724 16.6682 
-10.5059 16.6372 9.85479 
-9.82948 16.7304 9.57809 
-8.28285 22.4392 15.2825 
-8.55287 21.5664 14.3282 
-7.84366 22.7774 15.6118 
-6.85498 23.029 15.7631 
-8.43554 22.6958 15.8539 
10.5402 18.4898 11.4341 
7.1969 23.3177 16.6823 
10.6636 20.2098 13.7983 
6.36245 27.2371 17.6509 
6.23369 22.9384 15.8897 
4.86257 24.1378 17.0375 
7.42691 21.2771 13.9577 
9.67126 19.8564 13.0298 
13.0254 17.2669 11.9076 
8.47804 21.5177 14.9619 
7.95248 21.3974 14.4598 
11.6514 17.962 11.411 
11.0256 18.6124 11.9102 
11.7264 17.4968 10.9709 
11.306 16.8734 10.265 
12.1863 17.6021 11.4104 
1.73074 11.0398 3.54891 
-9.27133 8.10365 2.60827 
-9.11821 10.7283 3.51072 
-9.17773 11.8914 4.11329 
-9.15204 9.35931 2.96677 
-2.23312 8.75103 2.57055 
1.6855 9.77206 3.24977 
4.70671 9.67862 3.29702 
-2.17085 10.5638 3.49261 
5.81954 12.3078 1.4253 
-6.06109 9.98667 3.19139 
-11.1793 7.75078 3.25267 
-2.20468 9.19483 2.94866 
-2.18777 9.87935 3.22063 
-10.6108 10.0007 3.43896 
-9.13513 10.0438 3.23875 
-11.2703 10.592 3.98763 
-11.0796 11.7871 4.85644 
-11.9636 9.81427 3.99235 
-13.1238 9.49408 4.87036 
-11.3041 9.22299 3.44368 
-11.2872 9.9075 3.71566 
-27.9096 -8.15822 29.7777 
-27.5924 -6.18691 18.338 
-26.4445 -7.64384 29.6524 
-25.7755 -7.83508 29.6892 
-27.9778 -2.52971 35.1534 
-28.4591 -2.70508 35.4537 
-27.2824 0.775434 37.518 
-27.2136 3.69107 38.5576 
-26.5472 -2.3548 34.7184 
-25.9556 -2.39898 34.6926 
-27.2426 -5.65994 32.3538 
-27.2625 -2.44224 34.9359 
-27.1318 -5.76842 18.8296 
-26.8969 5.36627 16.1157 
-25.709 -5.40179 19.3738 
-25.0314 -5.51322 19.3319 
-27.5417 -7.74447 24.042 
-28.0219 -8.09673 23.921 
-27.0201 -8.18906 26.9629 
-27.177 -7.90104 29.715 
-26.0937 -7.25653 24.266 
-25.4879 -7.24271 24.313 
-26.6151 -6.81195 21.345 
-26.8176 -7.50051 24.154 
-26.477 5.10889 16.7373 
-26.0329 11.1047 26.059 
-25.0944 4.80744 17.4099 
-24.4095 4.81636 17.3449 
-26.7708 -0.459748 17.1182 
-27.2192 -0.51103 16.7112 
-26.2415 -3.28147 17.9895 
-26.4204 -5.58504 19.1017 
-25.3701 -0.41918 17.7675 
-24.768 -0.440025 17.8475 
-25.8993 2.40249 16.8962 
-26.0704 -0.439451 17.4428 
-26.5394 8.90518 20.8392 
-26.9782 9.24073 20.5859 
-25.7871 6.94114 18.6995 
-25.7857 4.95814 17.0736 
-25.1529 8.37053 21.26 
-24.5519 8.30511 21.3222 
-25.9051 10.3345 23.3996 
-25.8461 8.63787 21.0495 
-14.2095 15.0147 48.4568 
-5.23754 11.5339 54.9561 
-13.4624 14.1409 47.4056 
-13.0919 14.1632 46.8159 
-20.01 10.3399 46.2024 
-20.4644 10.6674 46.3997 
-22.3847 7.30769 44.7309 
-23.9168 4.62985 44.4696 
-18.9453 9.75952 45.3102 
-18.6012 9.65165 44.8385 
-16.5706 12.7918 46.7817 
-19.4777 10.0497 45.7564 
-5.49784 11.0829 54.358 
-5.93304 -0.0192875 57.1785 
-5.28028 10.4496 52.9414 
-4.86105 10.3828 52.4 
-9.4582 13.7691 51.4699 
-9.52582 14.2104 51.8823 
-11.4457 14.4519 49.3287 
-13.8359 14.5778 47.9312 
-8.99738 12.971 50.2307 
-8.71944 12.8135 49.7137 
-7.00975 12.2881 52.3719 
-9.22773 13.37 50.8503 
-6.15265 0.205556 56.4504 
-14.98 -4.4279 51.5872 
-5.89486 0.24042 54.9053 
-5.48292 0.0532628 54.3869 
-5.23471 5.67275 55.7375 
-5.12791 5.77955 56.3262 
-4.96287 8.36428 54.4401 
-5.38908 10.7662 53.6497 
-5.03336 5.37184 54.2361 
-4.77549 5.25294 53.6988 
-5.30508 2.68033 55.5334 
-5.13396 5.52226 54.9868 
-10.4605 -2.88056 54.6727 
-10.5695 -3.12708 55.2174 
-7.83771 -1.46498 55.0174 
-6.02378 0.22301 55.6778 
-9.93813 -2.6561 53.2367 
-9.6554 -2.73429 52.7045 
-12.5608 -4.07169 52.892 
-10.1992 -2.76836 53.9547 
-17.0005 -7.91795 50.2161 
-14.8969 -18.523 45.9781 
-16.1513 -7.52623 48.9702 
-15.5374 -7.2676 48.7659 
-21.7876 -2.77476 46.8674 
-22.1312 -2.65998 47.3378 
-23.8276 -0.248552 44.3267 
-25.7668 0.810892 42.1579 
-20.683 -2.69268 45.8478 
-20.1983 -2.51633 45.5536 
-18.6429 -5.21889 48.3885 
-21.2353 -2.73372 46.3576 
-14.9215 -17.8956 45.4937 
-20.5825 -20.1419 35.7824 
-14.1944 -16.8919 44.5349 
-13.6001 -16.7027 44.2444 
-15.4478 -13.1756 48.441 
-15.5752 -13.4601 48.9627 
-15.5593 -10.2614 49.1453 
-16.5758 -7.7221 49.5931 
-14.6884 -12.4619 47.3013 
-14.2463 -12.211 46.9682 
-14.5768 -15.3762 46.5969 
-15.068 -12.8188 47.8711 
-20.2745 -19.4198 35.8945 
-25.929 -10.3855 32.8207 
-19.2186 -18.3226 35.5253 
-18.6836 -18.1502 35.1286 
-17.3199 -19.2742 40.6369 
-17.5247 -19.8106 40.8362 
-15.4841 -18.3318 42.8147 
-14.5579 -17.3937 45.0142 
-16.4455 -18.1858 39.9765 
-15.9945 -17.906 39.6805 
-18.2813 -19.1282 37.7986 
-16.8827 -18.7301 40.3066 
-23.6415 -15.5088 33.7477 
-24.1074 -15.8897 33.6624 
-21.345 -17.3034 34.4598 
-19.7465 -18.8712 35.7099 
-22.3788 -14.6518 33.5104 
-21.8977 -14.3898 33.2472 
-24.6753 -12.8572 32.7982 
-23.0101 -15.0804 33.629 
-25.1185 14.7745 28.0184 
-17.933 23.87 27.3161 
-23.7556 14.0233 28.0878 
-23.33 13.5957 27.7392 
-26.2002 10.585 34.4884 
-26.7922 10.6223 34.5156 
-25.8395 8.33167 37.9222 
-25.3636 7.51003 40.8692 
-24.8095 10.0974 34.1809 
-24.3585 9.769 33.9775 
-25.1703 12.3507 30.747 
-25.5049 10.3412 34.3347 
-17.7082 23.21 27.694 
-12.2474 25.4889 37.5118 
-16.7949 21.9398 27.7803 
-16.2923 21.5724 27.4874 
-21.5521 19.2002 27.071 
-21.9725 19.5737 26.8406 
-22.9065 16.5243 27.1463 
-24.437 14.3989 28.0531 
-20.4027 18.1763 27.1954 
-19.9611 17.7819 27.0585 
-19.0481 20.8523 27.12 
-20.9773 18.6883 27.1332 
-12.3552 24.7343 37.2932 
-15.0839 17.0622 44.8256 
-11.7706 23.3704 36.7899 
-11.2089 23.0198 36.6033 
-14.6855 24.4872 32.2188 
-14.8224 25.0791 32.2011 
-15.7203 23.4146 29.6149 
-17.2515 22.5749 27.7372 
-13.9579 23.1385 32.0272 
-13.5489 22.7189 31.8658 
-12.9231 24.211 34.631 
-14.3216 23.8129 32.123 
-13.3584 21.5335 41.7642 
-13.4403 22.0033 42.1409 
-12.2798 22.7795 39.2571 
-12.063 24.0523 37.0415 
-12.7122 20.3662 40.9863 
-12.3096 19.9606 40.7795 
-13.7906 19.1201 43.4934 
-13.0352 20.9499 41.3752 
22.6308 12.7799 14.8161 
14.1756 17.9574 8.76995 
21.3987 12.0609 15.4419 
21.0165 12.0002 16.0213 
24.7459 5.35339 13.8383 
25.3267 5.44129 13.7519 
24.9498 1.25821 13.4061 
24.8001 -1.58629 12.1925 
23.4224 5.08432 14.5036 
23.0108 4.9704 14.9161 
23.2185 9.17949 14.9358 
24.0842 5.21885 14.1709 
14.0749 17.2229 9.05138 
9.02567 10.3172 1.4212 
13.3627 16.2319 10.0342 
12.8996 16.1549 10.5372 
18.4061 15.7542 12.2647 
18.7514 16.2249 12.0959 
20.1349 14.222 14.179 
22.0147 12.4204 15.129 
17.4279 14.8536 13.0502 
17.0396 14.6487 13.4704 
15.6989 16.3858 11.1359 
17.9169 15.3039 12.6575 
9.22618 10.0297 2.13252 
13.5427 -0.148091 3.03981 
8.81177 9.48056 3.5403 
8.29512 9.32386 3.96678 
11.2156 14.1087 5.39514 
11.264 14.5114 4.94254 
12.2141 15.5883 7.80658 
13.7188 16.7273 9.54279 
10.6791 13.309 6.60256 
10.325 13.112 7.0555 
9.68046 11.8295 4.19118 
10.9473 13.7089 5.99883 
10.9843 4.74378 1.67412 
11.023 4.75966 1.06783 
9.56833 7.2908 2.38781 
9.019 9.75509 2.83647 
10.4619 4.51932 3.11009 
10.1089 4.36687 3.58075 
11.8777 1.97232 2.39646 
10.723 4.63158 2.39208 
13.2234 -4.3406 2.35893 
5.31361 -12.7999 1.50507 
12.5404 -4.18669 3.75051 
12.1311 -3.77351 4.13427 
19.4708 -4.68891 6.98831 
19.8855 -4.57044 6.58018 
22.1525 -5.10827 10.0917 
24.0339 -6.35741 12.2098 
18.4427 -4.51987 8.07497 
18.0864 -4.27464 8.4818 
15.7609 -4.10051 4.97153 
18.9568 -4.60441 7.53161 
5.59487 -12.5845 2.21457 
7.82111 -21.616 8.9136 
5.37483 -11.9233 3.61798 
4.93366 -11.6098 4.04273 
8.91896 -8.11815 1.72084 
8.95012 -8.14964 1.11472 
10.636 -5.76067 2.42455 
12.8818 -4.26363 3.05476 
8.49473 -7.73126 3.15448 
8.20778 -7.47264 3.62368 
6.77756 -10.0888 2.45083 
8.70679 -7.9247 2.43769 
7.95568 -20.8849 9.18968 
17.0068 -18.7668 15.2422 
7.59062 -19.7139 10.1647 
7.17561 -19.4922 10.6666 
6.21098 -17.0581 5.50826 
6.13033 -17.459 5.05859 
5.46515 -14.4214 4.28637 
5.48488 -12.2539 2.91632 
5.95313 -16.1221 6.70935 
5.67905 -15.821 7.16051 
6.69883 -18.7588 7.93127 
6.08198 -16.5902 6.10882 
12.5326 -20.8235 12.3975 
12.713 -21.3798 12.2324 
9.76255 -20.5836 11.2701 
7.77317 -20.2994 9.67718 
11.8864 -19.6562 13.1754 
11.5823 -19.3371 13.5938 
14.6563 -19.896 14.3028 
12.2094 -20.2399 12.7865 
-17.2903 -22.4785 34.5621 
-12.5211 -20.9972 45.0461 
-16.2986 -21.3252 34.2258 
-16.256 -20.651 34.0553 
-13.5561 -25.6186 28.4976 
-13.9528 -26.0392 28.3623 
-10.9167 -26.6601 25.5064 
-8.50891 -27.8947 24.0015 
-12.8062 -24.3134 28.5229 
-12.6406 -23.7552 28.4064 
-15.4457 -23.2719 31.5141 
-13.1812 -24.9661 28.5103 
-12.1097 -20.8239 44.3906 
-1.24484 -24.4242 45.019 
-11.4344 -19.7663 43.4522 
-11.2967 -19.1015 43.341 
-15.3502 -21.3256 39.8642 
-15.8012 -21.6054 40.1601 
-16.3116 -21.1796 37.026 
-16.7944 -21.9018 34.394 
-14.4759 -20.2372 39.2038 
-14.2711 -19.7008 39.0045 
-13.5144 -20.383 42.0421 
-14.913 -20.7813 39.534 
-1.4931 -24.0504 44.3652 
1.75569 -27.5395 34.3495 
-1.46985 -22.7947 43.4283 
-1.21472 -22.1655 43.3167 
-6.74087 -22.2432 45.0255 
-6.83623 -22.561 45.5346 
-9.34195 -20.8278 44.5435 
-11.772 -20.2951 43.9214 
-6.39534 -21.0985 44.048 
-6.23151 -20.5577 43.8241 
-3.79426 -22.5138 44.5301 
-6.56806 -21.6708 44.5368 
0.900382 -26.2644 39.8252 
1.12068 -26.7483 40.1196 
-0.0909674 -24.4626 42.0098 
-1.4815 -23.4225 43.8967 
0.776579 -24.8726 39.1672 
0.904023 -24.3128 38.968 
1.76796 -26.6743 36.9826 
0.838525 -25.5685 39.4962 
-8.93917 26.7528 35.2216 
-15.3082 25.5316 25.5885 
-8.42899 25.3555 34.7591 
-8.43539 24.6754 34.9104 
-1.26265 28.0387 35.2174 
-1.25757 28.5229 35.561 
2.81856 27.988 34.6342 
5.61799 28.3765 33.3698 
-1.21153 26.6033 34.7661 
-1.16808 26.0112 34.7713 
-5.29274 26.654 35.3493 
-1.23707 27.3211 34.9918 
-14.6017 25.1765 25.6494 
-8.48647 26.0176 15.9903 
-13.7456 23.8701 25.7733 
