ply
format ascii 1.0
comment VCGLIB generated
element vertex 1753
property float x
property float y
property float z
element face 0
property list uchar int vertex_indices
end_header
-163.135 -91.2973 -975.328 
-165.291 -93.6472 -977.74 
-158.843 -95.5906 -978.182 
-157.508 -111.625 -986.381 
-158.244 -113.078 -987.096 
-158.542 -110.156 -988.212 
-158.692 -110.109 -991.82 
-159.889 -106.476 -984.226 
-158.149 -109.796 -986.173 
-152.579 -108.518 -984.564 
-145.945 -116.774 -987.166 
-149.532 -113.831 -986.443 
-127.219 -128.163 -990.26 
-133.728 -125.86 -989.286 
-134.456 -128.284 -989.435 
-140.521 -117.966 -987.278 
-140.681 -120.547 -987.983 
-140.519 -114.624 -986.584 
-144.773 -113.421 -986.135 
-118.142 -71.1093 -975.338 
-121.972 -69.9656 -975.106 
-67.1293 -119.687 -987.419 
-63.7709 -118.993 -987.519 
-64.2373 -104.508 -983.586 
-67.2193 -98.3174 -983.106 
-67.2532 -100.997 -982.584 
-64.8143 -108.315 -985.21 
-64.8804 -111.664 -986.158 
-77.7654 -112.809 -986.411 
-81.6138 -107.986 -985.991 
-84.0822 -109.004 -985.457 
-74.5106 -111.102 -986.756 
-90.781 -97.6942 -984.049 
-91.0155 -100.334 -984.339 
-174.038 -84.5151 -989.127 
-171.659 -81.8139 -987.917 
-20.9854 -201.989 -1039.04 
-36.4891 -194.754 -1050.93 
-33.3758 -196.046 -1049.27 
-32.9111 -195.083 -1054.88 
-15.2216 -202.598 -1026 
-17.4973 -203.289 -1030.7 
-13.2939 -204.121 -1029.16 
-28.723 -200.536 -1031.32 
-23.6444 -201.923 -1029.56 
-24.2845 -196.534 -1057.11 
-20.4125 -197.325 -1057.75 
-22.4354 -197.148 -1055.39 
-43.6604 -160.862 -1000.44 
-43.028 -165.342 -1002.38 
-54.2617 -148.505 -997.378 
-59.4241 -147.033 -997.025 
-29.8695 -156.929 -999.42 
-32.5341 -159.959 -1000.42 
-24.7014 -179.386 -1006.66 
-26.8856 -177.042 -1006.07 
-29.7308 -178.298 -1005.84 
-21.1137 -177.78 -1006.2 
-21.9256 -175.678 -1006.08 
-23.8009 -173.354 -1006.52 
-26.7279 -173.96 -1006.41 
-19.1105 -183.704 -1007.87 
-21.0025 -185.488 -1008.79 
-17.299 -188.247 -1009.65 
-17.6167 -190.138 -1010.76 
-10.8538 -191.689 -1010.98 
-13.0502 -194.485 -1013.32 
-4.05224 -202.418 -1020.82 
-0.880391 -198.761 -1015.77 
-7.26984 -196.859 -1015.38 
-10.1787 -198.219 -1016.65 
-10.5955 -200.66 -1020.01 
-5.45568 -203.528 -1023.22 
-27.0015 -197.012 -1019.28 
-35.0109 -194.309 -1018.69 
-21.7044 -198.039 -1019.3 
-20.4497 -199.789 -1021.89 
-15.487 -199.412 -1019.74 
-30.6077 -193.163 -1016.49 
-36.6258 -189.665 -1014.85 
-32.8377 -193.078 -1016.62 
-22.3998 -192.943 -1012.99 
-26.0633 -195.017 -1016.43 
-29.6136 -195.336 -1018.05 
-15.6109 -195.801 -1015.09 
-17.6092 -197.102 -1016.89 
-71.9072 -166.452 -1002.67 
-72.2185 -169.399 -1003.99 
-68.0263 -173.057 -1006.14 
-60.7374 -178.37 -1008.76 
-70.0105 -174.928 -1007.28 
-80.5832 -179.455 -1009.19 
-78.1651 -181.677 -1009.68 
-73.1399 -176.98 -1008.25 
-79.0078 -175.359 -1007.65 
-82.8362 -174.052 -1007.04 
-87.6054 -157.039 -1000.82 
-90.8306 -156.57 -1000.58 
-83.9737 -161.569 -1001.09 
-85.7299 -163.021 -1001.19 
-77.1585 -156.836 -1000.84 
-82.8365 -154.662 -1000.55 
-80.8577 -157.709 -1001.07 
-87.5996 -153.653 -1000.15 
-72.3463 -163.399 -1001.76 
-69.0202 -159.096 -1001.51 
-72.9406 -160.004 -1001.47 
-77.4803 -160.387 -1001.22 
-78.121 -163.747 -1001.74 
-77.0803 -166.282 -1002.24 
-79.5474 -167.565 -1002.7 
-76.5341 -168.466 -1003.21 
-83.1213 -167.249 -1002.69 
-75.1126 -172.283 -1005.95 
-78.9244 -170.045 -1004.49 
-60.5322 -191.549 -1014.05 
-67.1585 -190.725 -1012.55 
-64.7902 -191.997 -1014.31 
-63.8941 -188.931 -1012.01 
-59.7576 -188.926 -1012.44 
-58.8124 -175.321 -1007.04 
-57.9685 -177.381 -1008.26 
-62.5888 -181.664 -1009.93 
-59.4889 -184.459 -1010.95 
-133.659 -214.086 -1021.97 
-142.333 -214.336 -1021.41 
-136.564 -215.027 -1022.57 
-128.785 -207.44 -1019.1 
-134.515 -208.671 -1019.39 
-148.065 -202.59 -1009.12 
-151.877 -205.115 -1010.14 
-151.495 -205.846 -1011.64 
-150.67 -206.934 -1013.56 
-152.701 -209.797 -1016.31 
-147.113 -208.155 -1016.48 
-142.019 -210.373 -1019.39 
-147.089 -211.918 -1019.49 
-155.186 -213.872 -1019.13 
-149.18 -215.084 -1021.09 
-161.711 -216.41 -1021.08 
-167.117 -216.874 -1019.76 
-164.92 -215.842 -1023.71 
-169.556 -216.166 -1023.28 
-177.178 -216.103 -1013.87 
-171.393 -216.489 -1017.23 
-171.709 -217.076 -1018.72 
-159.871 -212.562 -1016.82 
-165.534 -214.759 -1017.37 
-108.282 -196.848 -1014.91 
-105.726 -198.872 -1017.16 
-108.606 -152.279 -998.337 
-113.197 -152.782 -998.465 
-94.4187 -140.321 -993.245 
-99.7966 -138.067 -992.446 
-96.3754 -141.429 -993.702 
-93.0069 -138.676 -993.03 
-92.0481 -147.344 -997.538 
-106.853 -163.138 -1000.07 
-111.488 -163.57 -999.519 
-101.052 -160.125 -1000.35 
-103.381 -161.805 -1000.45 
-101.388 -164.684 -1000.44 
-103.966 -152.321 -998.501 
-106.199 -151.993 -998.089 
-97.8994 -157.921 -1000.31 
-96.0952 -160.56 -1000.63 
-94.056 -163.487 -1000.7 
-90.3823 -159.873 -1000.72 
-95.5534 -156.123 -1000.21 
-133.971 -164.434 -998.735 
-131.667 -166.536 -998.805 
-135.367 -157.391 -998.987 
-140.393 -158.409 -998.838 
-135.128 -160.302 -999.12 
-142.974 -154.522 -998.197 
-122.689 -156.411 -999.062 
-126.349 -153.266 -998.376 
-145.336 -149.407 -996.788 
-148.922 -147.596 -996.479 
-132.907 -155.03 -998.387 
-131.729 -152.571 -997.968 
-137.596 -154.205 -998.03 
-136.534 -149.147 -996.664 
-139.846 -149.927 -997.183 
-135.866 -152.85 -998.153 
-147.983 -144.558 -995.507 
-134.333 -148.257 -996.741 
-137.514 -145.879 -996.154 
-134.803 -145.564 -995.358 
-128.249 -145.313 -995.696 
-126.504 -134.231 -990.084 
-128.398 -130.547 -989.744 
-121.46 -136.318 -990.683 
-128.699 -136.266 -990.354 
-129.335 -137.989 -991.141 
-123.789 -139.082 -991.836 
-138.782 -139.52 -992.267 
-133.959 -140.735 -993.305 
-134.545 -143.162 -994.903 
-137.153 -143.706 -995.055 
-130.541 -143.685 -995.172 
-140.695 -144.448 -995.525 
-170.277 -132.117 -987.783 
-166.653 -133.653 -988.243 
-162.673 -137.015 -990.722 
-168.816 -135.917 -990.244 
-158.303 -137.62 -991.319 
-129.38 -214.772 -1023.61 
-128.477 -213.734 -1022.31 
-120.355 -210.976 -1021.64 
-125.263 -210.448 -1020.79 
-121.134 -205.829 -1019.56 
-80.7048 -203.248 -1023.1 
-85.4862 -203.771 -1022.71 
-87.1748 -205.382 -1023.54 
-92.4417 -208.026 -1024.61 
-90.3714 -203.601 -1021.75 
-95.6602 -206.652 -1022.6 
-102.889 -209.116 -1022.88 
-96.8738 -208.901 -1024.18 
-100.836 -206.779 -1021.83 
-104.667 -207.784 -1021.96 
-111.97 -208.937 -1021.63 
-86.9089 -180.984 -1009.51 
-83.6518 -181.227 -1009.47 
-151.152 -183.727 -1006.23 
-152.816 -180.679 -1005.27 
-149.57 -177.329 -1003.85 
-147.727 -179.475 -1004.84 
-168.04 -183.787 -1006.83 
-168.666 -184.167 -1008.34 
-170.528 -181.614 -1009.91 
-173.035 -178.341 -1007.98 
-173.539 -176.947 -1011.58 
-176.198 -173.785 -1006.42 
-170.685 -180.648 -1005.47 
-171.351 -180.434 -1005.96 
-161.817 -169.693 -998.243 
-162.137 -168.419 -998.022 
-163.14 -171.003 -998.817 
-138.212 -172.683 -1001.99 
-145.092 -172.552 -1001.27 
-145.316 -169.752 -999.089 
-138.331 -168.881 -999.139 
-138.274 -170.627 -1000.12 
-142.713 -166.549 -998.027 
-144.872 -166.863 -998.047 
-173.569 -165.767 -999.202 
-175.653 -165.549 -999.733 
-177.868 -168.817 -999.335 
-164.142 -164.926 -998.594 
-169.583 -164.075 -998.936 
-122.497 -185.005 -1007.96 
-122.786 -188.855 -1008.87 
-126.257 -194.383 -1009.37 
-127.898 -195.364 -1009.15 
-131.321 -195.771 -1008.77 
-125.386 -190.308 -1009.19 
-128.034 -190.325 -1008.91 
-129.236 -184.775 -1007.49 
-132.199 -182.562 -1006.58 
-160.869 -151.09 -997.492 
-163.385 -154.687 -998.087 
-154.6 -157.352 -998.298 
-158.432 -157.819 -998.217 
-115.34 -147.188 -996.799 
-117.856 -147.67 -996.992 
-108.321 -173.082 -1004.82 
-102.244 -174.669 -1006.29 
-98.059 -182.778 -1009.41 
-100.57 -182.973 -1009.15 
-95.5999 -178.122 -1008.28 
-99.2198 -178.007 -1007.92 
-89.9389 -177.068 -1008.2 
-86.7372 -176.825 -1008.16 
-109.523 -165.891 -1000.2 
-106.771 -167.474 -1001.13 
-95.516 -165.218 -1000.93 
-102.549 -166.082 -1000.8 
-86.5382 -167.69 -1002.75 
-91.1935 -166.608 -1001.86 
-85.5209 -170.588 -1004.83 
-90.1142 -171.845 -1005.56 
-96.317 -173.832 -1006.37 
-95.4486 -175.556 -1007.33 
-125.209 -141.359 -993.837 
-128.313 -142.367 -994.375 
-120.869 -130.186 -990.792 
-119.673 -132.802 -990.646 
-114.398 -133.492 -991.172 
-111.009 -135.856 -991.243 
-115.488 -136.413 -990.815 
-118.72 -136.366 -990.726 
-116.425 -138.047 -991.279 
-119.777 -138.977 -991.899 
-115.38 -142.145 -994.107 
-120.175 -141.989 -994.104 
-108.374 -142.029 -993.836 
-32.6573 -133.82 -989.751 
-36.3804 -133.726 -989.996 
-40.3349 -137.271 -991.063 
-64.9681 -152.762 -999.081 
-70.4263 -152.462 -999.157 
78.8562 -197.4 -1020.09 
76.6593 -200.317 -1007.2 
75.4919 -201.295 -1003.9 
80.3222 -202.768 -1007.84 
78.3977 -196.901 -1016.99 
69.4212 -196.065 -1007.64 
64.2782 -194.284 -1006.03 
62.2538 -195.445 -1001.72 
-165.717 -96.942 -997.008 
-163.895 -98.1085 -997.718 
-164.406 -99.0914 -997.691 
-157.302 -94.6732 -997.647 
-156.105 -96.0316 -998.302 
-158.551 -99.2259 -998.822 
-160.591 -118.094 -1004.09 
-162.219 -112.399 -999.702 
-159.538 -108.991 -1000.01 
-158.994 -108.907 -994.578 
-159.056 -108.431 -997.564 
-166.602 -97.5209 -994.497 
-163.348 -101.644 -996.721 
-159.693 -107.131 -996.823 
-161.021 -105.385 -995.895 
-161.675 -103.652 -998.885 
-137.257 -63.7015 -989.652 
-132.936 -62.9291 -989.983 
-140.965 -67.0648 -990.135 
-112.918 -63.9203 -970.142 
-116.618 -62.2969 -969.726 
-112.953 -64.5352 -970.329 
-110.156 -63.4445 -972.216 
-116.758 -60.8803 -969.686 
-116.035 -65.1288 -972.02 
-107.27 -67.9166 -972.442 
-108.012 -68.4063 -972.485 
-128.822 -53.7616 -966.487 
-130.078 -51.3439 -966.758 
-133.592 -51.3026 -964.928 
-120.58 -59.1776 -968.611 
-124.184 -57.8438 -967.696 
-120.342 -60.6941 -969.33 
-123.883 -57.214 -967.649 
-121.762 -62.5759 -971.479 
-119.205 -65.7495 -973.067 
-110.564 -70.3182 -974.219 
-114.972 -68.1278 -973.614 
-108.946 -73.6249 -975.649 
-114.022 -72.2892 -975.537 
-110.912 -59.9495 -976.616 
-108.396 -57.7007 -990.164 
-109.794 -56.238 -987.957 
-106.537 -58.1439 -990.108 
-101.295 -61.7893 -993.178 
-106.233 -59.6386 -992.263 
-104.32 -59.6367 -990.955 
-110.194 -56.3009 -985.517 
-106.707 -58.4946 -987.442 
-109.11 -57.9746 -983.188 
-106.08 -60.5628 -983.419 
-100.944 -63.1089 -987.799 
-133.272 -96.2125 -979.095 
-132.951 -98.9279 -978.888 
-126.311 -100.603 -979.903 
-147.267 -51.5271 -967.202 
-149.774 -51.468 -967.621 
-144.044 -46.4418 -963.288 
-150.826 -41.8728 -961.61 
-156.578 -39.3634 -960.794 
-148.215 -46.635 -964.727 
-152.195 -46.4162 -965.049 
-145.266 -49.7579 -966.147 
-141.41 -52.6678 -967.325 
-145.456 -96.1046 -977.19 
-152.809 -93.9387 -976.191 
-151.534 -95.4906 -976.92 
-37.34 13.4569 -1022.79 
-31.4193 15.5458 -1020.58 
-32.3443 13.6179 -1021.44 
-19.8776 19.1511 -1010.28 
-17.3859 16.2146 -1011.07 
-25.719 14.2212 -1018.83 
-28.9645 17.4256 -1018.14 
-26.0705 13.2639 -1019.7 
-30.6184 12.2904 -1022.62 
-26.9092 11.5834 -1021.71 
-75.6434 8.14523 -1023.09 
-77.4943 4.71108 -1024.53 
-7.55258 -9.75943 -1021.91 
-34.6783 1.33954 -1031.51 
-31.7044 0.915831 -1030.71 
-37.0853 -1.00275 -1034.95 
-36.0155 -1.9031 -1035.33 
-52.0635 -5.82404 -1038.33 
-48.3619 -3.87291 -1037.26 
-49.2023 -6.41708 -1039.54 
-52.3414 -9.79257 -1041.6 
-54.5976 -1.9934 -1036.06 
-54.6937 -4.77531 -1037.86 
-85.7774 14.8537 -1006.42 
-82.4145 16.5519 -1009.31 
-96.2701 -17.5926 -1015.06 
-96.2625 -20.0928 -1016.55 
-141.41 -92.0067 -1032.55 
-142.233 -89.8721 -1032.86 
-143.779 -85.6281 -1025.12 
-144.563 -85.5359 -1026.03 
-143.537 -87.5905 -1026.44 
-141.754 -90.8962 -1028.42 
-140.621 -93.5085 -1029.22 
-141.324 -90.1403 -1027.04 
-142.297 -84.3294 -1023.37 
-114.022 -60.1355 -1015.83 
-111.513 -62.4711 -1018.15 
-142.611 -51.0627 -1020.53 
-142.064 -49.6373 -1021.09 
-141.652 -56.7455 -1022.28 
-142.207 -53.7876 -1020.34 
-140.216 -57.9582 -1016.09 
-139.656 -57.535 -1014.9 
-139.852 -61.1738 -1015.23 
-137.483 -57.8562 -1013.26 
-137.845 -61.5823 -1013.85 
-134.757 -59.0583 -1012.37 
-136.768 -63.4533 -1013.43 
-133.119 -53.6184 -1010.57 
-132.051 -49.9444 -1009.81 
-120.205 -55.5583 -1012.61 
-112.673 -57.0356 -1015.54 
-117.954 -54.2957 -1013.44 
-119.564 -50.569 -1013.15 
-116.391 -51.6027 -1014.93 
-120.185 -48.5791 -1013.82 
-122.294 -49.9038 -1011.82 
-124.875 -48.0188 -1010.76 
-124.642 -53.8011 -1011.01 
-124.75 -51.145 -1010.6 
-130.421 -54.2881 -1010.41 
-128.11 -54.4868 -1010.51 
-131.333 -61.5707 -1012.37 
-131.189 -59.5686 -1011.95 
-138.376 -69.6599 -1014.64 
-140.142 -68.6212 -1014.45 
-141.457 -67.8107 -1014.64 
-103.646 -68.346 -1026.72 
-102.72 -72.2128 -1028.84 
-100.933 -68.5502 -1028.92 
-123.251 -88.4284 -1026.63 
-121.69 -83.6434 -1024.95 
-125.855 -84.1025 -1024.16 
-145.535 -100.407 -1033.79 
-143.317 -96.7329 -1034.92 
-144.054 -100.131 -1030.02 
-142.828 -101.726 -1029.02 
-142.81 -98.2819 -1029.71 
-143.493 -97.8359 -1031.98 
-144.815 -100.996 -1030.35 
-145.88 -104.358 -1028.82 
-146.061 -106.462 -1028.16 
-145.958 -108.979 -1027.99 
-143.539 -107.245 -1028.04 
-102.026 -41.2107 -989.18 
-102.129 -44.2443 -990.664 
-103.35 -47.8513 -991.977 
-102.745 -49.307 -992.921 
-112.994 -35.8051 -988.906 
-114.39 -34.5184 -989.95 
-111.842 -37.8581 -991.006 
-105.868 -46.6486 -992.507 
-107.375 -43.8569 -990.688 
-103.382 -50.0369 -994.115 
-104.281 -49.3066 -995.15 
-96.9058 -54.8084 -991.319 
-100.383 -53.9842 -993.521 
-99.3364 -56.0627 -993.75 
-101.4 -54.0472 -994.985 
-102.613 -53.0648 -996.542 
-103.11 -52.0902 -1000.46 
-106.228 -45.258 -1004.85 
-104.568 -47.461 -1005.8 
-105.327 -47.6985 -1002.6 
-107.54 -43.2637 -1001.09 
-102.963 -45.0525 -1010.18 
-102.98 -46.4403 -1010.41 
-103.765 -46.2018 -1008.77 
-103.47 -48.4762 -1007 
-102.705 -49.0489 -1009.51 
-107.252 -44.7936 -992.2 
-108.125 -43.1024 -992.675 
-109.72 -40.6895 -994.101 
-104.16 -49.78 -997.613 
-105.182 -47.6363 -998.79 
-110.005 -37.6742 -1002.57 
-108.747 -39.9345 -1003.26 
-109.972 -39.6598 -1000.48 
-110.744 -37.3493 -1000.79 
-108.138 -42.3674 -997.497 
-106.481 -44.9875 -998.114 
-105.423 -47.9819 -1000.51 
-104.964 -48.8675 -1001.6 
-102.174 -52.1774 -1005.65 
-101.959 -54.0216 -1002.53 
-100.465 -58.5843 -1002.99 
-100.993 -56.7261 -1000.95 
2.98408 -205.086 -1047.4 
4.55954 -206.128 -1044.4 
14.2905 -204.708 -1051.36 
14.8549 -200.545 -1058.62 
16.6163 -203.288 -1054.13 
18.1826 -205.652 -1048.78 
9.05028 -198.686 -1062.3 
12.5401 -199.719 -1060.32 
15.7837 -193.242 -1068.02 
12.7384 -192.737 -1068.92 
18.053 -191.222 -1069.48 
3.23376 -184.791 -1078 
10.0848 -186.742 -1075.08 
11.2634 -188.525 -1073.46 
-4.49264 -195.467 -1068.09 
-4.55477 -192.336 -1071.73 
-0.992302 -159.051 -1083.52 
-0.12345 -157.499 -1083.35 
1.83786 -164.459 -1082.53 
4.58547 -164.741 -1080.89 
-17.764 -182.669 -1079.39 
-35.422 -193.054 -1059.13 
-32.8367 -193.999 -1058.33 
-39.1344 -192.182 -1056.52 
-36.8194 -190.082 -1066.99 
-33.6563 -189.653 -1070.32 
-30.974 -189.653 -1072.17 
-31.7658 -192.762 -1063.47 
-35.3109 -191.609 -1064.21 
-76.0696 -187.668 -1086.36 
-77.0664 -182.424 -1089.69 
-71.7557 -186.584 -1085.8 
-68.1874 -182.79 -1087.23 
-65.4446 -187.653 -1083.43 
-82.8366 -175.954 -1090.35 
-80.9663 -177.48 -1091.31 
-88.6793 -179.061 -1091.56 
-85.0263 -179.751 -1092.16 
-80.438 -179.53 -1091.52 
-76.9858 -178.377 -1091.44 
-77.8272 -177.35 -1091.52 
-73.0903 -176.554 -1091.41 
-84.607 -183.826 -1090.44 
-81.106 -184.14 -1089.72 
-35.3801 -162.541 -1090.95 
-36.3834 -164.535 -1090.74 
-41.8411 -168.386 -1090.17 
-45.1399 -167.413 -1090.49 
-37.7553 -187.581 -1072.88 
-41.9299 -187.73 -1068.77 
-41.66 -186.343 -1073.49 
-41.7247 -185.336 -1076.27 
-44.262 -185.287 -1075.69 
-81.8438 -167.6 -1064.23 
-85.5504 -161.97 -1061.55 
-85.6317 -168.07 -1063.29 
-87.8561 -171.138 -1063.77 
-81.2701 -162.387 -1062.79 
-86.6217 -154.855 -1059.23 
-76.1994 -162.435 -1063.78 
-76.8058 -167.505 -1065.23 
-81.0289 -155.834 -1060.69 
-77.7264 -156.325 -1061.58 
-74.3764 -160.641 -1063.72 
-74.614 -152.91 -1060.95 
-77.1163 -193.866 -1076.55 
-63.605 -190.194 -1076.95 
-67.341 -190.606 -1075.66 
-66.3539 -190.785 -1077.2 
-65.2907 -189.935 -1080.4 
-60.8145 -188.963 -1079.71 
-61.7119 -188.264 -1081.84 
-58.82 -187.014 -1081.94 
-60.0071 -188.957 -1077.05 
-58.4613 -187.825 -1078.9 
-59.8279 -188.591 -1075.7 
-59.9275 -187.939 -1074.94 
-71.2445 -190.461 -1082.46 
-67.794 -189.418 -1082.32 
-72.5531 -191.883 -1080.88 
-69.279 -191.224 -1080.16 
-70.7596 -192.053 -1076.75 
-74.0451 -193.088 -1077.63 
-72.5766 -191.739 -1075.18 
-67.1353 -188.752 -1073.97 
-73.3308 -186.886 -1072.11 
-73.2622 -191.18 -1074.47 
-63.4044 -188.622 -1074.58 
-56.2164 -183.142 -1073.52 
-56.2704 -183.927 -1074.22 
-58.4239 -183.949 -1073.44 
-60.0936 -186.721 -1074.13 
-64.151 -187.56 -1073.83 
-69.0637 -185.28 -1072.29 
-72.3868 -181.165 -1070.4 
-60.7123 -181.119 -1040.76 
-58.5098 -184.825 -1043.32 
-57.8221 -186.355 -1040.18 
-56.5091 -188.262 -1039.92 
-69.7373 0.478557 -1031.16 
-70.9824 -2.45647 -1032.02 
-65.8748 -0.917164 -1033.36 
-67.3652 -3.88478 -1034.34 
-76.9347 -3.90884 -1030.91 
-75.1295 -3.84374 -1031.96 
-114.837 -33.454 -993.888 
-115.553 -31.8155 -995.602 
-117.054 -30.1839 -992.005 
-119.142 -27.1721 -991.118 
-104.399 -20.3201 -1001.32 
-102.299 -18.7609 -1002.02 
-109.574 -26.5791 -1000.83 
-107.989 -27.4463 -1001.96 
-100.023 -20.0364 -1004.66 
-101.952 -22.8189 -1003.86 
-104.709 -25.9626 -1003 
-107.131 -31.309 -1003.21 
-96.4005 -57.9684 -991.41 
-92.5916 -57.6412 -986.147 
-91.3603 -179.892 -1031.85 
-87.3934 -182.074 -1033.2 
-93.573 -183.122 -1032.58 
-88.9346 -185.361 -1033.97 
-95.5004 -177.563 -1030.28 
-140.688 -160.813 -1018.4 
-138.684 -156.56 -1017.22 
-135.802 -160.596 -1018.78 
-179.507 -166.403 -1007.83 
-179.353 -164.407 -1013.42 
-178.495 -162.21 -1015.1 
-177.237 -168.63 -1017.35 
-178.339 -165.958 -1016.33 
-179.097 -164.34 -1016.15 
-178.183 -162.62 -1016.26 
-175.954 -164.034 -1017.31 
-175.917 -168.236 -1018.35 
-174.799 -170.201 -1019.14 
-174.809 -172.706 -1019.28 
-170.627 -166.6 -1018.21 
-168.007 -152.089 -1013.59 
-165.442 -153.502 -1014.29 
-162.199 -151.759 -1014.09 
-167.643 -157.012 -1015.46 
-168.99 -154.129 -1014.37 
-171.772 -155.681 -1014.02 
-174.731 -158.775 -1014.98 
-174.306 -160.178 -1015.96 
-170.58 -162.453 -1016.82 
-163.862 -155.5 -1015.28 
-165.132 -159.561 -1016.35 
-162.854 -163.667 -1017.52 
-165.834 -168.105 -1018.82 
-158.136 -155.103 -1015.15 
-156.75 -151.953 -1014.28 
-153.409 -147.931 -1013.21 
-149.262 -146.816 -1013.34 
-146.744 -144.445 -1012.77 
-143.926 -144.765 -1013.35 
-146.825 -147.391 -1013.87 
-141.866 -141.626 -1012.56 
-140.338 -146.204 -1014.27 
-137.276 -142.101 -1013.3 
-135.156 -143.122 -1013.81 
-138.77 -144.012 -1013.68 
-130.98 -141.26 -1013.68 
-133.348 -144.702 -1014.71 
-163.288 -101.73 -998.299 
-164.785 -99.7189 -997.13 
-161.613 -101.58 -999.091 
-159.69 -103.653 -1000.08 
-157.639 -109.127 -1001.85 
-153.346 -106.601 -1001.31 
-151.867 -109.899 -1002.47 
-164.725 -115.849 -1003.04 
-165.751 -117.734 -1003.7 
-162.073 -113.258 -1002.63 
-160.672 -110.739 -1001 
-162.484 -112.815 -1002.15 
-158.44 -108.475 -1001.1 
-157.596 -106.899 -1001.04 
-159.488 -106.889 -999.874 
-159.104 -106.715 -1000.24 
-157.89 -104.348 -1000.47 
-157.421 -114.192 -1003.49 
-155.363 -132.034 -1008.41 
-159.197 -131.869 -1008.47 
-149.77 -126.412 -1006.93 
-150.093 -129.877 -1007.9 
-150.051 -122.59 -1006.02 
-147.258 -122.833 -1006.4 
-146.866 -127.702 -1007.74 
-95.3999 -100.746 -1009.63 
-94.4024 -103.543 -1010.3 
-95.2758 -102.511 -1009.63 
-94.4757 -99.9246 -1010.6 
-102.024 -84.979 -1001.21 
-100.759 -85.9134 -1002.6 
-104.233 -80.7204 -998.19 
-102.146 -81.8303 -999.124 
-109.232 -86.074 -999.613 
-129.396 -111.523 -1005.07 
-126.276 -113.374 -1005.83 
-128.856 -115.195 -1006.09 
-125.539 -112.016 -1005.33 
-115.964 -113.244 -1007.63 
-120.745 -114.556 -1007.22 
-117.907 -110.823 -1006.37 
-128.439 -119.415 -1007.95 
-127.127 -120.063 -1008.46 
-129.149 -121.44 -1008.58 
-131.257 -121.853 -1008.21 
-131.129 -122.278 -1008.59 
-124.918 -115.589 -1006.95 
-129.38 -117.237 -1006.9 
-127.124 -117.76 -1007.58 
-122.761 -117.244 -1007.94 
-118.039 -116.569 -1008.39 
-165.319 -45.3714 -979.641 
-162.778 -49.3224 -982.131 
-163.357 -49.955 -981.455 
-155.38 -41.3621 -981.018 
-156.138 -47.017 -982.934 
-161.779 -49.8543 -982.738 
-157.292 -61.6994 -986.537 
-155.792 -64.161 -987.95 
-157.12 -63.7606 -987.132 
-158.33 -57.2787 -985.587 
-158.409 -59.2817 -986.114 
-152.768 -59.326 -986.974 
-155.498 -59.611 -986.6 
-137.523 -41.8083 -982.462 
-135.119 -42.9424 -982.932 
-137.408 -43.2607 -983.821 
-133.8 -45.2871 -984.556 
-132.935 -44.707 -983.825 
-135.189 -46.6833 -985.211 
-139.367 -46.9485 -985.082 
-143.984 -43.7257 -983.712 
-130.989 -46.8466 -985.445 
-107.237 -74.3448 -996.128 
-104.866 -78.5241 -997.348 
-108.338 -77.4602 -996.81 
-109.509 -59.0577 -991.346 
-121.318 -56.5816 -989.953 
-118.156 -58.1126 -990.9 
-119.744 -59.0538 -991.688 
-114.087 -58.3573 -990.801 
-112.674 -60.0289 -991.521 
-111.082 -61.8964 -992.449 
-115.653 -65.2204 -993.445 
-112.65 -65.7797 -993.929 
-114.341 -73.7066 -995.768 
-110.942 -68.3767 -994.773 
-112.953 -84.3748 -998.598 
-113.137 -86.8705 -999.357 
-131.103 -79.0754 -994.582 
-127.958 -77.7433 -995.167 
-130.185 -81.5266 -995.822 
-126.827 -78.463 -996.064 
-143.411 -37.9707 -979.247 
-141.975 -38.1354 -977.211 
-139.725 -39.8519 -980.356 
-156.575 -37.2783 -979.247 
-149.053 -36.9479 -980.311 
-145.852 -36.2751 -978.402 
-145.166 -36.2771 -975.894 
-161.673 -29.8022 -975.659 
-159.598 -30.1965 -975.863 
-158.286 -33.6845 -977.685 
-154.96 -34.1458 -978.259 
-152.599 -34.65 -978.805 
-151.388 -34.4993 -978.584 
-149.03 -35.846 -979.469 
-148.429 -35.0746 -976.913 
-149.393 -35.0667 -978.213 
-151.613 -33.4313 -976.816 
-152.937 -32.2514 -975.362 
-148.106 -34.9656 -974.288 
-137.4 -40.5727 -977.996 
-136.837 -40.7318 -979.185 
-135.288 -42.4467 -974.954 
-140.095 -39.1057 -976.092 
-140.934 -38.9954 -973.974 
-136.236 -42.4168 -972.936 
-144.61 -37.8321 -969.424 
-149.354 -35.0345 -968.64 
76.8635 -203.755 -1018.73 
78.8669 -201.22 -1019.83 
75.1709 -202.032 -1023.01 
31.146 -170.276 -1070.22 
37.2587 -171.472 -1066.03 
37.7575 -174.036 -1065.8 
41.205 -171.564 -1063.5 
28.6922 -177.196 -1070.68 
30.4139 -179.44 -1069.43 
26.9994 -182.235 -1069.97 
16.4935 -188.608 -1071.89 
21.2633 -190.331 -1069.04 
24.8638 -195.565 -1063.31 
25.9327 -191.701 -1066.08 
25.9551 -211.14 -1030.62 
23.2755 -211.047 -1031.05 
39.2201 -211.348 -1020.56 
38.6915 -211.682 -1023.25 
42.9836 -212.212 -1026.37 
38.7378 -210.523 -1017.98 
32.3027 -211.696 -1029.85 
34.5848 -211.724 -1026.49 
47.7055 -181.227 -1012.54 
47.0653 -181.605 -1010.04 
47.65 -182.438 -1010.69 
49.105 -181.253 -1015.02 
50.2707 -181.562 -1016.07 
49.7407 -180.671 -1015.8 
48.8925 -180.506 -1014.34 
50.9817 -179.405 -1015.46 
42.6286 -178.738 -995.672 
40.0622 -179.227 -995.643 
45.5221 -179.243 -996.425 
47.1675 -178.023 -994.929 
45.9856 -180.677 -1001.87 
55.1996 -177.689 -1004.9 
55.4936 -176.999 -1000.81 
85.4346 -158.974 -1007.63 
83.2147 -161.108 -1013.55 
83.7002 -162.089 -1011.59 
84.1169 -162.278 -1010.14 
80.4027 -165.171 -1016.58 
82.2163 -163.58 -1014.62 
83.8633 -160.711 -993.878 
81.8242 -162.655 -992.365 
79.8899 -161.693 -991.035 
82.1034 -160.024 -992.61 
78.8147 -158.685 -992.932 
75.9733 -160.536 -991.652 
73.8857 -157.112 -995.624 
70.7231 -158.532 -994.569 
71.7534 -155.668 -996.978 
62.7651 -175.028 -1009.36 
60.2929 -175.718 -1003.9 
63.9259 -174.215 -1001.14 
20.2088 -133.895 -991.853 
16.7117 -131.319 -991.445 
28.7471 -152.761 -1066.22 
31.6303 -154.715 -1065.18 
29.1432 -155.463 -1066.65 
12.8414 -169.833 -1077.69 
16.6965 -169.036 -1076.97 
19.1433 -170.122 -1076.05 
20.5102 -172.064 -1075.1 
20.5873 -177.924 -1074.05 
23.2139 -165.291 -1074.13 
23.5384 -168.627 -1074.15 
26.4296 -162.452 -1070.99 
29.3995 -163.183 -1070.13 
26.457 -165.176 -1071.83 
28.2393 -172.104 -1071.97 
30.5708 -158.384 -1067.82 
28.8229 -160.507 -1069.45 
35.6019 -157.623 -1063.65 
35.6127 -160.161 -1064.79 
39.4788 -161.502 -1062.12 
34.4426 -163.285 -1066.79 
41.5004 -159.41 -1059.36 
38.7427 -148.59 -1056.35 
34.0033 -151.064 -1061.4 
38.5632 -154.432 -1058.88 
40.5649 -152.557 -1056.17 
40.9934 -154.723 -1056.92 
49.4978 -121.749 -1030.88 
50.3232 -120.659 -1027.51 
47.3704 -122.639 -1035.33 
49.7212 -126.317 -1033.9 
42.4535 -139.065 -1049.97 
24.8555 -172.177 -1073.47 
27.4355 -174.434 -1072.09 
14.6148 -185.222 -1074.35 
18.0076 -183.517 -1073.52 
3.19284 -144.435 -1080.16 
5.49355 -141.756 -1078.31 
0.306304 -136.884 -1078.13 
2.57399 -133.363 -1076.72 
2.80224 -137.297 -1079.08 
5.09956 -133.51 -1077.17 
6.57084 -133.905 -1076.72 
-39.1467 -122.81 -1086.8 
-41.2099 -124.213 -1087.11 
-45.9249 -130.592 -1087.33 
-44.3651 -142.565 -1090.15 
-48.1423 -145.005 -1089.93 
-41.4639 -144.162 -1090.26 
-45.6248 -153.084 -1090.76 
-57.129 -138.451 -1089.08 
-63.4499 -135.456 -1087.96 
-56.1725 -136.905 -1088.81 
-65.6472 -141.725 -1087.83 
-67.8816 -140.774 -1087.35 
-69.0793 -137.775 -1086.76 
-70.3171 -177.712 -1090.85 
-68.3981 -175.978 -1090.95 
-69.1642 -172.479 -1090.21 
-64.7261 -171.501 -1090.26 
-58.128 -161.162 -1091.1 
-64.2528 -164.096 -1090 
-19.1161 -143.152 -1087.03 
-21.1645 -140.442 -1087.46 
-15.4014 -139.275 -1085.25 
-13.1569 -140.59 -1084.46 
-16.7698 -167.073 -1082.57 
-14.0915 -164.27 -1082.84 
-20.2199 -163.666 -1084.01 
-20.4134 -167.429 -1083.27 
-18.1519 -159.258 -1084.38 
-17.4982 -163.114 -1083.18 
-8.45051 -150.61 -1083.5 
-7.0371 -150.25 -1083.75 
-2.63684 -138.737 -1079.86 
-3.46648 -141.154 -1081.44 
-6.81238 -142.918 -1082.31 
-5.61225 -143.967 -1082.76 
-7.68118 -146.6 -1083.15 
-12.4817 -148.468 -1084.79 
-21.8018 -41.2116 -1056.04 
-20.4582 -38.7293 -1053.89 
-25.3275 -39.5373 -1056.38 
-19.168 -35.344 -1050.42 
-13.0877 -38.6754 -1049.42 
17.0581 132.806 -996.528 
18.2522 135.255 -995.942 
20.0993 138.334 -995.537 
11.0006 125.296 -996.337 
9.18582 122.268 -996.323 
6.94148 118.204 -996.218 
15.769 128.37 -995.541 
13.7843 124.984 -995.175 
13.445 127.479 -996.574 
15.0977 129.694 -996.48 
59.3829 158.811 -968.454 
57.9816 158.432 -968.933 
57.3302 155.588 -972.09 
56.3654 153.979 -972.65 
54.0877 151.405 -973.31 
53.9993 149.666 -973.527 
52.747 145.471 -973.744 
44.6924 37.555 -980.102 
44.7553 36.4514 -980.464 
42.2247 40.1633 -977.937 
45.8035 42.9011 -976.931 
58.5322 67.3218 -960.591 
63.677 70.2016 -959.824 
61.4223 66.3891 -962.155 
73.9992 80.5029 -952.926 
75.6739 82.5544 -950.936 
69.3858 76.8413 -955.056 
68.762 74.0173 -957.54 
83.4799 77.6408 -957.656 
76.5784 73.1932 -960.206 
55.2626 43.6912 -975.182 
52.5512 37.6916 -976.852 
57.1724 41.198 -974.073 
55.9422 37.2712 -975.394 
48.8495 38.0039 -978.307 
48.3507 33.1033 -979.224 
46.6893 18.4159 -983.269 
46.2184 15.5324 -984.621 
44.9591 12.8752 -986.167 
40.8239 15.9615 -985.268 
42.5489 18.2101 -984.36 
43.4847 22.3034 -982.989 
46.4725 22.4813 -982.133 
-8.40503 -26.4121 -1037.33 
-21.9628 -10.0594 -1035.22 
-21.5011 -11.7596 -1035.96 
-29.8314 -9.98064 -1038.78 
-28.1695 -11.6868 -1039.08 
-21.3841 -13.028 -1037.39 
-18.5181 -13.5938 -1035.5 
-19.9271 -16.1416 -1038.39 
32.1367 21.6457 -987.178 
29.4921 18.996 -988.49 
52.2445 62.4756 -959.15 
54.1854 64.7645 -958.352 
56.5033 61.3592 -955.768 
53.1226 58.928 -957.513 
47.7169 39.1577 -959.229 
44.1323 40.3312 -961.889 
50.8463 40.3859 -957.058 
39.9774 44.6653 -964.845 
91.9677 47.1328 -953.034 
91.3746 49.0497 -952.018 
93.9024 48.5605 -955.071 
94.5836 50.2805 -952.719 
94.6081 51.235 -951.593 
91.4962 54.0768 -950.281 
87.7702 52.1929 -951.081 
96.5423 54.6491 -950.002 
51.2803 36.1496 -959.012 
49.177 37.2964 -958.862 
53.0035 39.8077 -956.91 
56.0976 42.4813 -955.344 
52.1679 41.4393 -956.509 
52.9688 45.0396 -955.603 
66.71 44.0613 -954.831 
63.6236 40.7338 -956.151 
88.8655 85.0932 -952.187 
89.6657 81.7953 -954.345 
91.9734 84.9358 -952.486 
94.3248 85.2958 -951.53 
95.6417 89.5555 -949.389 
101.174 94.6444 -945.838 
94.7084 80.1088 -951.335 
111.924 103.219 -936.663 
112.697 103.556 -935.019 
106.99 98.9751 -941.861 
106.784 91.5398 -942.691 
103.494 86.5071 -945.917 
101.985 83.8148 -947.055 
102.715 69.5141 -949.384 
101.212 66.1492 -950.947 
105.3 78.1825 -946.515 
90.0958 67.8602 -955.838 
94.3815 67.1075 -953.927 
93.1138 63.7901 -954.85 
66.1434 57.7349 -969.149 
72.7709 59.7199 -965.275 
69.1094 56.0885 -967.328 
62.4277 54.1628 -971.412 
62.3659 46.4852 -971.365 
64.4718 48.9949 -970.334 
69.076 47.8713 -968.096 
62.3909 43.8804 -971.538 
71.0454 52.7037 -966.903 
66.923 52.6489 -968.992 
75.9137 59.9832 -963.514 
78.98 56.2784 -962.599 
84.6542 43.1894 -964.637 
90.9767 46.5496 -960.403 
85.5913 61.7719 -958.82 
82.6976 58.6263 -960.572 
84.7614 55.2376 -960.069 
79.9322 51.5565 -962.873 
40.5501 8.15717 -968.296 
41.2546 5.89196 -968.997 
51.0521 16.9868 -964.324 
51.2457 14.4332 -964.954 
50.0425 9.90525 -967.32 
47.1255 8.69491 -967.68 
45.1217 22.8184 -965.012 
43.3958 20.6073 -965.854 
48.4508 14.7812 -965.157 
46.0117 13.8319 -966.036 
44.8578 9.89505 -967.088 
20.4194 19.8085 -970.496 
21.5187 12.7874 -970.694 
18.1836 11.2401 -972.081 
20.6677 7.86058 -971.706 
25.6571 11.8449 -970.349 
22.7646 11.4265 -970.586 
33.7194 46.2148 -968.255 
30.8487 44.4398 -969.332 
25.8744 43.752 -970.065 
25.0205 40.5589 -969.844 
-120.966 -190.692 -1086.72 
-116.98 -190.66 -1088.16 
-116.14 -188.174 -1088.05 
-126.232 -191.107 -1083.89 
-110.417 -187.471 -1089.6 
-102.327 -175.562 -1085.81 
-100.767 -177.731 -1087.26 
-104.401 -179.585 -1086.89 
-149.786 -181.726 -1059.72 
-148.971 -181.899 -1061.17 
-147.057 -177.04 -1060.23 
-146.274 -176.782 -1061.15 
-144.317 -173.684 -1060.71 
-140.342 -174.273 -1063.66 
-144.95 -167.964 -1058.88 
-147.292 -163.919 -1055.98 
-142.497 -163.075 -1059.64 
-137.881 -160.615 -1062.57 
-140.676 -160.228 -1060.78 
-138.964 -163.5 -1062.38 
-126.727 -123.806 -1058.94 
-121.145 -123.532 -1062.74 
-113.633 -126.587 -1067.34 
-116.625 -122.74 -1065.48 
-112.277 -122.98 -1068.11 
-130.574 -90.2686 -1044.73 
-127.248 -92.837 -1047.52 
-86.3208 -97.1293 -1073.23 
-87.8103 -98.1663 -1072.85 
-104.638 -101.857 -1063.75 
-101.737 -103.993 -1065.97 
-95.3721 -101.977 -1068.77 
-91.4162 -102.369 -1070.85 
-91.39 -95.1906 -1070.37 
-95.7619 -93.8415 -1068.1 
-97.1373 -127.968 -1075.83 
-93.4273 -128.992 -1077.73 
-87.686 -144.651 -1083.94 
-92.4429 -145.293 -1083.09 
-94.9832 -152.35 -1085.48 
-94.1875 -150.325 -1085.44 
-90.295 -150.818 -1086.77 
-84.4475 -144.593 -1084.87 
-86.816 -150.051 -1087.44 
-81.0785 -150.627 -1089.03 
-96.4245 -148.194 -1083.56 
-92.1404 -148.827 -1085.42 
-97.4462 -143.811 -1080.12 
-96.8972 -146.078 -1081.74 
-79.2757 -130.316 -1083.79 
-78.3958 -135.385 -1084.37 
-83.6666 -133.444 -1082.05 
-78.724 -128.243 -1083.31 
-81.2934 -128.443 -1082.84 
-79.9894 -126.396 -1082.54 
-85.9948 -131.861 -1080.84 
-88.4812 -133.474 -1080.12 
-96.307 -132.726 -1076.83 
-92.2524 -132.145 -1078.54 
-64.1067 -108.965 -1081.88 
-61.0229 -107.845 -1082.14 
-57.7704 -110.836 -1083.57 
-62.2978 -111.511 -1082.9 
-83.3569 -59.5433 -1054.54 
-80.2205 -59.0328 -1056.8 
-79.5257 -65.1971 -1059.22 
-83.2781 -64.6861 -1055.95 
-86.47 -62.9244 -1052.56 
-73.4866 -73.3215 -1065.58 
-71.6684 -75.6215 -1067.18 
-78.1976 -68.3953 -1061.45 
-75.4342 -69.8969 -1063.07 
-71.5537 -68.9154 -1064.73 
-72.9222 -72.1392 -1064.92 
-72.1267 -57.3597 -1061.34 
-69.5729 -58.3336 -1062.79 
-90.6853 -64.6765 -1060.83 
-88.1332 -66.0364 -1062.06 
-86.025 -67.4611 -1063.08 
-84.8308 -66.7714 -1061.54 
-83.3212 -68.761 -1063.93 
-83.2434 -66.1229 -1057.5 
-81.5199 -66.5873 -1058.6 
-81.5918 -67.6939 -1060.64 
-78.0023 -66.7856 -1060.82 
-80.137 -67.1607 -1059.92 
-74.3928 -61.5529 -1061.24 
-71.7128 -63.3143 -1063.33 
-40.9858 -81.7372 -1075.74 
-38.0826 -78.5597 -1074.54 
-45.6252 -77.2907 -1073.92 
-43.1352 -79.0447 -1074.53 
-50.6633 -74.9599 -1072.63 
-48.3539 -75.4785 -1073.19 
-55.0628 -76.3886 -1073.07 
-56.421 -78.1676 -1073.54 
-127.34 -41.8503 -1033.03 
-123.959 -42.7674 -1033.56 
-124.964 -43.5733 -1035.23 
-128.4 -43.372 -1033.47 
-126.957 -44.3216 -1034.82 
-127.783 -49.6228 -1033.82 
-131.405 -41.241 -1030.3 
-130.231 -54.8038 -1032.08 
-127.763 -55.5531 -1034.45 
-124.286 -54.146 -1037.63 
-116.874 -59.7814 -1045.31 
-125.601 -113.891 -1059.45 
-122.504 -111.435 -1058.92 
-25.2691 -114.076 -1082.67 
-25.6908 -106.549 -1081.83 
-20.2615 -108.495 -1081.25 
-20.8239 -113.037 -1081.69 
-17.8625 -109.973 -1080.57 
-22.1287 -116.163 -1082.67 
-18.9088 -118.058 -1082.3 
-13.4248 -109.824 -1078.76 
-15.7191 -112.842 -1080.51 
-11.2425 -112.447 -1079.15 
-6.28694 -106.703 -1075.92 
-28.7176 -103.077 -1081.43 
-21.9041 -100.182 -1078.81 
-22.2693 -103.077 -1079.94 
-17.675 -103.183 -1079.07 
-17.7889 -99.0219 -1077.53 
-14.9772 -101.123 -1077.27 
-8.15205 -108.927 -1077.06 
-3.49071 -107.592 -1074.92 
-12.6137 -106.59 -1077.79 
-9.74054 -104.704 -1076.28 
-5.12604 -96.7035 -1071.93 
-0.123236 -95.1875 -1068.94 
-3.03083 -88.8304 -1068.09 
-0.841421 -89.9015 -1067.42 
-121.438 -43.5158 -1019.27 
-123.954 -41.9422 -1019.34 
-123.976 -46.9915 -1038.2 
-123.323 -49.8348 -1039.05 
-121.062 -48.1887 -1040.96 
-119.016 -50.2233 -1042.98 
-125.381 -45.1311 -1036.28 
-123.599 -45.7397 -1038 
-120.629 -46.9181 -1040.46 
-121.748 -45.7377 -1038.63 
-118.968 -46.4728 -1040.07 
-121.8 -44.6279 -1036.82 
-119.77 -45.3092 -1037.63 
-120.106 -44.2724 -1033.24 
-116.528 -47.0243 -1039.43 
-116.669 -47.8243 -1041.85 
-116.035 -46.6262 -1036.24 
-115.072 -47.3868 -1038.26 
-111.033 -49.3368 -1035.1 
-116.838 -45.6402 -1028.75 
-70.5869 -94.2554 -1074.7 
-36.1429 -72.5717 -1072.51 
-34.6247 -74.516 -1073.01 
12.8289 -86.8393 -1054.44 
14.6622 -87.6159 -1052.87 
12.0245 -81.4704 -1051.9 
2.24395 -121.572 -1074.73 
5.24716 -121.446 -1073.14 
1.01401 -127.371 -1075.98 
-1.87426 -129.62 -1077.67 
-1.54617 -123.462 -1076.56 
-1.44806 -125.768 -1076.97 
-2.50841 -119.772 -1076.82 
-0.920482 -117.766 -1075.87 
-37.2576 -108.787 -1081.92 
-40.2379 -105.756 -1081.33 
-37.0335 -103.41 -1081.44 
-68.2273 -132.533 -1086.65 
-71.1962 -132.177 -1086 
-74.1593 -137.809 -1085.66 
-65.0062 -133.256 -1087.3 
-61.0576 -134.472 -1087.95 
-63.9618 -129.763 -1085.68 
-60.9394 -130.808 -1086.31 
-78.4209 -50.183 -1055.07 
-73.8639 -47.9375 -1057.13 
-72.1395 -48.5544 -1058.2 
-54.3857 -50.8951 -1063.86 
-54.5627 -55.1973 -1064.9 
-58.1939 -54.4901 -1064.46 
-58.888 -47.3564 -1061.8 
-64.9234 -50.2447 -1061.36 
-61.5868 -52.3631 -1063.18 
-62.4674 -44.3584 -1059.92 
-59.2207 -57.319 -1064.95 
-56.1451 -58.5245 -1065.92 
-55.4846 -60.8795 -1067.5 
-97.7768 -27.2481 -1016.15 
-98.018 -30.3473 -1016.6 
-93.5851 -16.931 -1020.4 
-93.3154 -18.4962 -1022.07 
-95.7431 -22.2366 -1019.26 
-96.6194 -25.8662 -1019.21 
-93.2085 -20.6226 -1023.7 
-93.3428 -22.6822 -1024.52 
-95.066 -24.9121 -1022.25 
-95.7651 -28.3309 -1022.36 
-80.2079 -14.8075 -1035.17 
-76.8305 -14.7059 -1037.31 
-85.6484 -18.785 -1033.64 
-83.9498 -17.3786 -1034.36 
7.57717 -19.0006 -1004.99 
7.44016 -22.0003 -1008.14 
9.44491 -20.114 -1003.54 
8.87195 -23.9478 -1007.18 
-6.24732 -11.6972 -1020.99 
-4.86909 -13.0085 -1019.25 
-6.94812 -6.26035 -1018.21 
-6.15298 -8.11506 -1019.04 
-4.15539 -9.41531 -1016.99 
-1.82674 -9.36467 -1013.29 
-46.3553 -35.3961 -1057.36 
-38.3071 -35.4987 -1057.46 
-51.3933 -40.155 -1059.96 
-47.135 -38.4413 -1058.93 
-49.5069 -46.6523 -1062.82 
-52.7479 -46.5033 -1061.8 
-51.8788 -48.8211 -1062.58 
-59.2687 -42.3357 -1058.98 
-56.5059 -44.6987 -1060.59 
-35.1746 -31.0713 -1054.71 
-32.2803 -40.5893 -1057.79 
-34.9577 -41.9022 -1059.23 
-32.2563 -36.2432 -1056.93 
-38.5999 -39.1655 -1059.11 
-41.6087 -42.377 -1060.55 
-46.5787 -42.9229 -1061.03 
-41.2544 -37.8153 -1058.36 
-52.5411 -42.3338 -1060.75 
-50.4015 -44.2967 -1061.76 
-55.4183 -40.2717 -1059.29 
-53.4976 -39.9005 -1059.44 
-59.9659 -37.4195 -1057.15 
-57.4901 -38.1997 -1058.16 
-84.9984 -33.4178 -1041.91 
-76.5231 -28.6427 -1046.73 
-87.7133 -39.2076 -1041.76 
-83.221 -35.8663 -1044.59 
-86.4692 -42.026 -1044.48 
-89.6011 -43.8001 -1041.9 
-89.0334 -45.0989 -1043 
-17.7387 -30.3693 -953.25 
-24.1562 -2.54245 -946.551 
-27.4087 -2.02105 -945.342 
-27.2816 -4.33814 -944.871 
-26.5705 -5.63936 -945.126 
-27.0784 -9.90827 -945.815 
-11.0446 -20.9251 -955.544 
-13.7188 -19.8784 -953.618 
-14.5872 -17.7596 -953.562 
-11.3016 -18.6991 -955.794 
-5.84368 -7.3698 -958.348 
-14.1897 -15.0751 -953.028 
-19.4156 13.1918 -947.979 
-23.0785 13.696 -945.855 
-24.4423 16.1074 -944.614 
-27.3225 14.6277 -943.628 
-46.9535 34.1791 -940.887 
-51.0136 33.7365 -941.677 
-42.0996 32.5784 -938.967 
-41.9207 34.229 -940.262 
-44.3922 32.4674 -939.223 
-52.4592 18.826 -941.9 
-57.1811 17.504 -943.642 
-47.8614 19.2643 -940.743 
-43.4699 20.317 -939.73 
-32.3317 14.6688 -941.876 
-33.5945 13.6452 -941.62 
-31.579 18.1584 -941.798 
-63.488 13.5399 -947.173 
-59.5079 14.3547 -945.143 
-54.4982 14.5845 -943.232 
-53.9463 12.4128 -942.697 
-57.338 12.1381 -943.876 
-49.4446 13.1356 -941.007 
-23.6154 2.06267 -945.833 
-26.3437 0.057926 -945.284 
-30.7091 -0.821136 -944.545 
-39.8242 3.75856 -941.218 
-31.2195 2.10937 -943.071 
-35.4457 3.12642 -942.03 
-14.4684 19.7353 -951.379 
4.44139 -16.0976 -969.453 
1.84082 -17.8276 -967.217 
-0.889511 -24.1942 -964.597 
3.44407 -20.4742 -968.216 
9.60753 -26.7275 -975.53 
34.9754 -54.3591 -995.551 
32.4915 -55.92 -995.941 
36.9815 -49.1969 -994.323 
31.9763 -49.6011 -994.025 
27.9691 -57.0037 -996.151 
28.91 -58.7089 -997.529 
29.8139 -51.281 -994.53 
27.5896 -52.7698 -994.557 
23.9906 -53.6112 -994.114 
27.1373 -47.5668 -992.283 
24.7106 -48.9949 -992.189 
12.088 -42.4603 -981.98 
9.36026 -41.7943 -978.414 
9.08046 -44.6039 -978.549 
8.44095 -46.3948 -978.625 
-1.59438 -40.5237 -967.656 
-0.291662 -41.7128 -968.915 
2.47847 -39.4653 -971.213 
2.05777 -37.7071 -970.429 
5.15124 -29.074 -971.422 
6.68339 -31.0387 -973.569 
2.31013 -32.1063 -969.272 
0.887862 -34.6002 -968.337 
-1.01886 -37.0333 -967.143 
-3.11966 -38.2482 -965.461 
-21.6787 -36.9942 -952.9 
-25.9622 -36.1789 -951.542 
-17.1418 -44.7616 -956.993 
-19.9776 -44.6195 -955.891 
-13.2516 -45.3596 -959.611 
-11.1515 -46.4865 -961.57 
81.2124 42.3336 -965.85 
84.8519 40.3959 -966.038 
85.1454 38.9294 -966.958 
66.9335 1.63839 -971.755 
68.1227 3.29239 -971.199 
67.1705 24.5431 -977.881 
73.205 28.6359 -974.921 
65.7291 16.819 -979.002 
69.3189 18.4453 -977.159 
63.7452 20.7043 -979.875 
67.8963 23.5708 -977.871 
90.2213 42.8072 -954.174 
90.7731 39.6214 -954.166 
90.0053 38.0872 -954.253 
92.2345 36.1362 -954.481 
87.5189 33.9906 -955.056 
86.4653 32.6636 -955.748 
74.8826 36.5793 -956.432 
74.3256 33.616 -957.201 
81.4711 33.9926 -956.131 
79.4241 31.574 -956.898 
84.5731 31.146 -956.783 
82.9903 30.2572 -957.396 
60.7211 31.577 -975.138 
66.0854 37.3976 -971.219 
63.7348 29.8037 -975.233 
59.3941 34.8214 -974.346 
55.9493 32.7758 -976.001 
72.7806 45.4748 -967.172 
78.9875 47.2639 -964.487 
74.4701 43.1678 -967.222 
73.4652 50.5215 -965.888 
72.8534 48.2126 -966.746 
68.8538 42.4961 -969.125 
70.8599 40.7691 -968.936 
62.8738 39.1524 -972.14 
62.8131 35.6417 -972.99 
98.8111 58.035 -949.107 
97.5586 57.8203 -948.791 
93.2709 60.1652 -948.395 
95.6951 62.7125 -947.339 
110.038 88.3493 -938.724 
108.395 83.3262 -940.332 
108.33 82.8696 -942.299 
107.402 82.8585 -939.661 
107.064 80.4488 -941.076 
106.006 76.5353 -942.563 
104.858 74.7674 -942.828 
102.145 70.6736 -944.194 
103.667 71.4632 -943.975 
94.3299 72.8816 -942.903 
90.623 70.3393 -943.838 
89.7441 66.0858 -945.914 
91.7044 64.7738 -946.598 
14.1208 -20.0128 -1001.58 
9.56824 -10.2568 -997.981 
8.75621 -12.9555 -999.57 
10.2771 -18.2516 -1001.89 
11.0508 -21.7048 -1003.63 
12.9567 -26.5197 -1005.39 
14.9505 -26.403 -1004.75 
15.4765 -21.0957 -1002.04 
13.4881 -28.747 -1005.88 
17.0395 -23.7198 -1003.1 
32.1402 -29.5751 -1001.33 
30.5433 -26.1133 -999.769 
33.5082 -25.7646 -999.281 
35.2675 -19.579 -996.892 
38.5351 -21.7961 -996.92 
27.2207 -28.579 -1001.48 
27.3224 -25.4079 -1000.39 
31.0859 -20.9983 -998.338 
20.7413 -26.0068 -1002.95 
23.5597 -26.408 -1002.2 
-14.7163 21.8189 -1002.05 
-12.406 21.5467 -999.529 
-9.78908 22.0147 -995.843 
-9.87644 19.5847 -999.526 
-7.77734 16.1982 -999.391 
-4.85001 12.6438 -997.29 
-5.26294 8.55128 -1002.19 
-4.60326 5.66912 -1003.64 
-16.1904 80.1637 -945.563 
-18.3382 79.1504 -944.542 
-11.7966 72.5166 -947.374 
-11.7748 75.1401 -947.09 
-0.024011 70.7271 -962.369 
3.54498 74.3313 -963.86 
8.60791 78.5314 -964.898 
13.8686 82.19 -963.766 
27.9016 94.9596 -965.137 
34.9384 100.182 -962.222 
35.6548 100.222 -961.297 
29.449 95.5163 -964.076 
23.2884 89.7159 -964.406 
24.0152 90.1077 -963.451 
20.166 87.3849 -964.62 
20.124 87.7169 -965.486 
37.6691 99.5203 -946.149 
34.1466 102.628 -944.752 
35.7649 98.5771 -947.896 
42.0638 100.949 -943.745 
38.867 100.224 -945.336 
49.4685 104.819 -941.884 
53.5694 107.751 -939.321 
57.2278 111.704 -937.581 
50.25 107.703 -943.241 
-4.07943 73.1977 -974.041 
-1.66405 73.3811 -971.464 
-13.6142 67.59 -980.118 
-15.756 65.3579 -980.562 
-8.51233 71.1191 -978.003 
-31.6575 108.035 -1000.64 
-30.911 105.364 -1000.61 
4.44315 112.777 -995.644 
6.46186 115.803 -995.62 
5.10941 115.738 -995.93 
2.80385 112.186 -995.789 
0.845937 108.111 -995.311 
1.684 107.805 -994.971 
4.02472 110.278 -994.603 
-5.3671 95.304 -991.73 
-7.81633 93.296 -992.351 
-35.3684 44.3927 -1003.29 
-37.0473 41.6679 -1005.06 
-42.5164 24.9754 -1016.44 
-37.7908 25.3536 -1015.67 
-25.8822 24.4829 -1010.84 
-29.2409 24.3586 -1013.11 
-37.3273 23.4172 -1017.15 
-33.8906 23.1758 -1016.26 
-55.8701 19.0139 -1021.05 
-51.4834 21.1466 -1019.7 
-27.4353 70.6125 -940.074 
-128.709 165.021 -918.43 
-128.045 162.715 -919.04 
-126.714 168.631 -923.03 
-128.055 170.518 -920.291 
-126.113 179.944 -928.06 
-127.487 178.685 -926.871 
-29.2483 103.003 -950.251 
-32.6094 103.262 -949.715 
-42.0597 109.262 -952.359 
-34.8879 105.729 -950.601 
-43.3503 89.7382 -941.482 
-48.7834 89.1845 -942.494 
-43.7139 93.2966 -943.139 
-48.4037 92.3433 -943.536 
-47.4467 115.955 -955.091 
-45.6104 112.265 -953.283 
-47.5513 118.993 -956.799 
-50.811 122.532 -958.443 
-42.2232 113.062 -954.563 
-64.9221 122.624 -954.626 
-92.9966 105.259 -945.838 
-97.2868 106.283 -945.007 
-81.2722 102.344 -947.757 
-81.5219 101.127 -947.899 
-77.3832 103.577 -947.429 
-81.0278 104.616 -947.191 
-86.1245 105.104 -946.296 
-86.671 106.964 -945.696 
-112.304 121.509 -933.847 
-110.527 118.881 -936.206 
-110.997 120.087 -937.405 
-109.488 119.342 -940.085 
-126.811 160.343 -920.137 
-125.581 157.62 -921.411 
-123.287 162.406 -917.749 
-121.875 159.45 -919.423 
-120.498 164.658 -918.974 
-121.164 162.271 -918.975 
-99.167 109.88 -950.665 
-98.7753 111.598 -953.56 
-71.7939 31.2546 -954.221 
-70.193 30.0893 -952.423 
-65.872 31.109 -948.99 
-63.2912 32.9005 -947.372 
-61.6242 31.8602 -946.396 
-62.914 29.8416 -946.306 
-64.5177 28.7843 -947.241 
-66.706 52.7189 -949.742 
-65.1168 49.3423 -948.04 
-66.2869 47.5234 -949.5 
-67.6329 46.949 -950.944 
-78.4456 -52.6054 -968.527 
-75.3829 -54.8779 -967.045 
-76.7106 -45.9792 -964.862 
-76.6039 -48.0061 -965.544 
-135.105 -144.399 -1059.92 
-132.27 -152.529 -1066.42 
-130.175 -156.489 -1067.32 
-130.906 -160.669 -1067.06 
-127.205 -156.142 -1068.93 
-129.173 -153.075 -1068.14 
-125.914 -161.75 -1070.09 
-110.928 -142.464 -1073.39 
-112.196 -145.81 -1074.8 
-115.451 -147.069 -1073.9 
-89.6728 -182.277 -1091.8 
-94.5888 -183.178 -1091.71 
-95.7812 -181.358 -1091.27 
-111.1 -181.708 -1086.03 
-111.301 -184.294 -1087.73 
-112.039 -179.347 -1083.77 
-104.642 -188.772 -1090.26 
-103.973 -186.203 -1090.62 
-100.237 -182.516 -1090.4 
-103.706 -184.596 -1090.35 
-90.4238 -176.458 -1089.85 
-87.3623 -175.22 -1089.7 
-93.2289 -176.584 -1089.14 
-96.9042 -179.1 -1089.35 
-75.548 -172.987 -1089.94 
-73.173 -171.021 -1089.57 
-83.2443 -171.554 -1088.92 
-117.261 -183.207 -1083.98 
-116.816 -184.752 -1085.7 
-119.44 -181.862 -1081.7 
-116.264 -179.381 -1081.83 
-110.811 -177.309 -1083.36 
-109.533 -150.032 -1052.78 
-106.596 -150.026 -1053.48 
-105.439 -153.974 -1054.85 
-114.254 -159.985 -1054.75 
-117.104 -156.273 -1053.18 
-116.467 -163.519 -1055.39 
-142.351 -173.788 -1054.14 
-143.637 -173.962 -1055.36 
-143.219 -177.895 -1054.99 
-147.383 -165.289 -1055.85 
-149.089 -162.86 -1053.74 
-143.578 -171.262 -1059.78 
-142.759 -170.45 -1060.82 
-143.851 -171.508 -1057.08 
-145.509 -168.596 -1055.77 
-146.575 -176.466 -1058.69 
-143.952 -172.681 -1057.92 
-142.941 -172.694 -1054.19 
-143.649 -170.98 -1053.87 
-143.703 -169.924 -1052.68 
-145.888 -167.84 -1052.88 
-142.266 -171.035 -1053 
-141.087 -175.049 -1054.56 
-133.138 -193.876 -1062.36 
-137.023 -178.48 -1056.69 
-137.034 -184.814 -1058.68 
-134.238 -173.373 -1055.58 
-134.554 -157.209 -1050.01 
-136.74 -158.582 -1050.17 
-135.074 -163.462 -1052.02 
-137.243 -168.949 -1053.49 
-139.963 -169.788 -1053.06 
-140.079 -159.919 -1049.85 
-137.761 -162.635 -1051.27 
-131.641 -157.963 -1050.92 
-132.168 -155.945 -1050.01 
-124.268 -155.238 -1051.47 
-126.99 -159.134 -1052.31 
-133.154 -165.252 -1053.04 
-134.39 -168.131 -1053.81 
-128.82 -170.987 -1055.73 
-141.276 -109.014 -1028.43 
-141.277 -111.816 -1028.82 
-138.372 -111.6 -1029.4 
-147.745 -160.653 -1048.55 
-146.165 -159.094 -1048.18 
-149.188 -161.025 -1048.56 
-138.725 -155.237 -1048.23 
-141.053 -156.295 -1048.12 
-126.137 -153.701 -1050.36 
-116.721 -148.231 -1050.44 
-137.83 -137.406 -1040.11 
-137.155 -134.766 -1039.73 
-139.523 -135.36 -1039.88 
-136.308 -132.798 -1039.27 
-138.495 -132.863 -1039.45 
-126.115 -131.348 -1039.82 
-129.889 -129.966 -1038.44 
-123.239 -129.414 -1039.57 
-121.494 -132.725 -1041.52 
-134.817 -151.65 -1047.27 
-135.207 -145.675 -1043.73 
-120.426 -142.933 -1046.58 
-128.51 -188.341 -1081.57 
-125.618 -188.836 -1083.65 
-132.142 -189.337 -1080.05 
-138.635 -191.379 -1076.51 
-135.496 -189.76 -1077.78 
-133.721 -190.595 -1079.52 
-130.591 -195.964 -1081.18 
-111.918 -199.124 -1068.43 
-110.93 -200.514 -1069.49 
-157.688 -198.678 -1059.55 
-154.245 -202.271 -1066.76 
-156.347 -201.278 -1065.93 
-151.28 -199.855 -1068.68 
-153.108 -204.047 -1065.85 
-149.861 -202.247 -1068.7 
-149.349 -203.488 -1067.92 
-147.858 -204.193 -1067.35 
-146.754 -203.936 -1068.06 
-145.098 -201.82 -1071.13 
-151.064 -204.745 -1064.47 
-153.085 -204.623 -1064.7 
-157.817 -204.354 -1063.63 
-159.723 -201.1 -1063.5 
-156.993 -204.776 -1063.32 
-153.412 -204.476 -1063.04 
-156.564 -203.612 -1061.24 
-156.004 -204.674 -1062.49 
-153.44 -203.309 -1061.75 
-122.509 -196.287 -1064.65 
-125.566 -199.259 -1065.17 
-131.816 -200.554 -1077.8 
-130.114 -198.15 -1080.54 
-128.564 -200.127 -1079.5 
-126.59 -195.978 -1083.46 
-123.868 -198.266 -1083.43 
-122.956 -196.423 -1085.07 
-126.685 -198.805 -1081.61 
-125.956 -199.868 -1080.77 
-129.483 -201.504 -1076.85 
-126.13 -201.672 -1077.25 
-145.274 -180.258 -1055.41 
-145.139 -182.25 -1055.86 
-149.034 -183.195 -1056.36 
-148.061 -183.517 -1055.89 
-146.515 -181.585 -1055.81 
-147.498 -181.013 -1056.27 
-146.417 -193.613 -1059.19 
-145.632 -197.83 -1060.71 
-148.183 -194.172 -1059.04 
-151.005 -188.389 -1056.83 
-152.214 -191.051 -1057.44 
-148.995 -186.24 -1056.33 
-148.915 -188.813 -1057.09 
-147.368 -184.114 -1055.89 
-95.8218 -176.661 -1063.48 
-97.0188 -172.059 -1061.88 
-98.671 -180.341 -1063.76 
-93.8982 -167.492 -1061.24 
-95.6725 -164.658 -1060.12 
-106.621 -172.024 -1060.07 
-109.415 -166.009 -1057.57 
-110.34 -173.583 -1059.87 
-103.896 -168.284 -1059.53 
-104.528 -172.81 -1060.86 
-99.5913 -166.722 -1059.88 
-101.433 -170.129 -1060.47 
-125.93 -58.1932 -1036.6 
-124.217 -59.7611 -1038.37 
-126.689 186.766 -923.953 
-125.091 187.203 -927.166 
-138.278 81.443 -943.968 
-139.888 80.1787 -944.934 
-129.901 81.1356 -949.239 
-131.798 90.1295 -949.143 
-132.611 85.3937 -947.602 
-129.379 84.6738 -950.122 
-131.453 92.9183 -950.391 
-151.091 58.4184 -958.469 
-150.544 55.7659 -959.506 
